5.244314 5.244314 5.321569 5.321569 5.321569 5.321569 5.321569 5.321569 5.321569 5.321569 5.321569 5.321569 5.321569 5.321569 5.321569 5.321569 5.321569 5.321569 5.321569 5.321569 5.244314 5.244314 5.244314 5.244314 5.244314 5.244314 5.244314 5.244314 5.244314 5.244314 5.321569 5.321569 5.321569 5.321569 5.321569 5.321569 5.321569 5.321569 5.3988237 5.321569 5.321569 5.321569 5.321569 5.321569 5.3988237 5.3988237 5.3988237 5.3988237 5.4760785 5.4760785 5.4760785 5.4760785 5.4760785 5.4760785 5.5533338 5.5533338 5.4760785 5.4760785 5.4760785 5.5533338 5.5533338 5.6305885 5.6305885 5.6305885 5.6305885 5.6305885 5.6305885 5.6305885 5.6305885 5.6305885 5.6305885 5.6305885 5.6305885 5.6305885 5.6305885 5.6305885 5.6305885 5.6305885 5.5533338 5.5533338 5.4760785 5.4760785 5.3988237 5.3988237 5.321569 5.321569 5.321569 5.321569 5.321569 5.321569 5.321569 5.244314 5.244314 5.167059 5.167059 5.167059 5.167059 5.167059 5.167059 5.167059 5.089804 5.089804 5.089804 5.0125494 5.0125494 4.9352946 4.9352946 4.8580394 4.8580394 4.8580394 4.7807846 4.7807846 4.7807846 4.7807846 4.7807846 4.7807846 4.7807846 4.7807846 4.7807846 4.7807846 4.7807846 4.7807846 4.7807846 4.7807846 4.7807846 4.70353 4.70353 4.626275 4.626275 4.626275 4.626275 4.54902 4.54902 4.54902 4.54902 4.471765 4.471765 4.471765 4.471765 4.471765 4.471765 4.471765 4.471765 4.471765 4.471765 4.471765 4.471765 4.471765 4.471765 4.471765 4.471765 4.471765 4.471765 4.471765 4.471765 4.471765 4.3945103 4.3945103 4.3945103 4.471765 4.471765 4.471765 4.471765 4.471765 4.471765 4.471765 4.471765 4.471765 4.471765 4.471765 4.471765 4.471765 4.471765 4.471765 4.54902 4.54902 4.54902 4.54902 4.54902 4.54902 4.70353 4.70353 4.70353 4.70353 4.70353 4.7807846 4.7807846 4.7807846 4.70353 4.70353 4.70353 4.70353 4.70353 4.70353 4.70353 4.70353 4.7807846 4.7807846 4.7807846 4.70353 4.70353 4.70353 4.70353 4.7807846 4.7807846 4.7807846 4.7807846 4.7807846 4.7807846 4.7807846 4.7807846 4.8580394 4.8580394 4.8580394 4.8580394 4.9352946 4.9352946 4.9352946 5.0125494 5.089804 5.089804 5.089804 5.167059 5.167059 5.167059 5.167059 5.167059 5.167059 5.244314 5.244314 5.321569 5.321569 5.3988237 5.3988237 5.3988237 5.3988237 5.3988237 5.3988237 5.3988237 5.3988237 5.3988237 5.3988237 5.3988237 5.3988237 5.4760785 5.4760785 5.4760785 5.4760785 5.4760785 5.4760785 5.4760785 5.4760785 5.4760785 5.4760785 5.4760785 5.4760785 5.4760785 5.4760785 5.4760785 5.4760785 5.4760785 5.4760785 5.4760785 5.4760785 5.4760785 5.4760785 5.4760785 5.4760785 5.4760785 5.4760785 5.4760785 5.4760785 5.4760785 5.3988237 5.3988237 5.3988237 5.3988237 5.3988237 5.3988237 5.3988237 5.3988237 5.3988237 5.3988237 5.321569 5.321569 5.321569 5.321569 5.321569 5.321569 5.321569 5.321569 5.321569 5.244314 5.244314 5.244314 5.244314 5.244314 5.244314 5.244314 5.244314 5.167059 5.167059 5.167059 5.167059 5.167059 5.167059 5.167059 5.167059 5.167059 5.167059 5.089804 5.089804 5.089804 5.089804 5.089804 5.089804 5.089804
5.244314 5.244314 5.244314 5.244314 5.244314 5.244314 5.244314 5.244314 5.244314 5.244314 5.244314 5.244314 5.244314 5.244314 5.244314 5.244314 5.244314 5.244314 5.244314 5.244314 5.244314 5.244314 5.244314 5.167059 5.167059 5.167059 5.167059 5.244314 5.244314 5.244314 5.244314 5.244314 5.321569 5.321569 5.321569 5.321569 5.321569 5.321569 5.321569 5.321569 5.321569 5.321569 5.321569 5.321569 5.321569 5.321569 5.3988237 5.3988237 5.3988237 5.3988237 5.3988237 5.3988237 5.4760785 5.4760785 5.4760785 5.4760785 5.4760785 5.4760785 5.4760785 5.5533338 5.5533338 5.6305885 5.6305885 5.6305885 5.6305885 5.6305885 5.6305885 5.6305885 5.6305885 5.6305885 5.6305885 5.6305885 5.6305885 5.6305885 5.6305885 5.6305885 5.6305885 5.5533338 5.5533338 5.4760785 5.4760785 5.4760785 5.3988237 5.321569 5.321569 5.321569 5.321569 5.321569 5.321569 5.321569 5.244314 5.244314 5.244314 5.167059 5.167059 5.244314 5.244314 5.244314 5.167059 5.167059 5.089804 5.089804 5.0125494 5.0125494 5.0125494 4.9352946 4.9352946 4.8580394 4.8580394 4.7807846 4.7807846 4.7807846 4.7807846 4.7807846 4.7807846 4.7807846 4.7807846 4.7807846 4.70353 4.70353 4.7807846 4.7807846 4.7807846 4.7807846 4.70353 4.70353 4.70353 4.626275 4.626275 4.626275 4.54902 4.54902 4.54902 4.471765 4.471765 4.471765 4.471765 4.471765 4.471765 4.471765 4.471765 4.471765 4.471765 4.471765 4.471765 4.471765 4.471765 4.471765 4.471765 4.471765 4.471765 4.471765 4.3945103 4.3945103 4.3945103 4.3945103 4.3945103 4.3945103 4.3945103 4.3945103 4.471765 4.471765 4.471765 4.471765 4.471765 4.471765 4.471765 4.471765 4.471765 4.471765 4.471765 4.471765 4.471765 4.471765 4.471765 4.54902 4.54902 4.54902 4.54902 4.54902 4.70353 4.70353 4.70353 4.70353 4.70353 4.7807846 4.7807846 4.70353 4.70353 4.70353 4.70353 4.70353 4.70353 4.70353 4.70353 4.70353 4.70353 4.7807846 4.70353 4.70353 4.70353 4.70353 4.70353 4.70353 4.70353 4.70353 4.7807846 4.7807846 4.7807846 4.7807846 4.7807846 4.7807846 4.7807846 4.8580394 4.8580394 4.8580394 4.8580394 4.9352946 4.9352946 4.9352946 5.0125494 5.089804 5.089804 5.089804 5.089804 5.089804 5.089804 5.167059 5.167059 5.167059 5.244314 5.244314 5.321569 5.321569 5.321569 5.321569 5.321569 5.3988237 5.3988237 5.321569 5.321569 5.321569 5.321569 5.3988237 5.3988237 5.3988237 5.3988237 5.3988237 5.3988237 5.4760785 5.4760785 5.4760785 5.4760785 5.4760785 5.4760785 5.4760785 5.4760785 5.3988237 5.3988237 5.3988237 5.4760785 5.4760785 5.4760785 5.4760785 5.4760785 5.3988237 5.3988237 5.3988237 5.3988237 5.3988237 5.3988237 5.3988237 5.3988237 5.3988237 5.3988237 5.3988237 5.3988237 5.3988237 5.321569 5.321569 5.321569 5.321569 5.321569 5.321569 5.321569 5.321569 5.321569 5.321569 5.321569 5.244314 5.244314 5.244314 5.244314 5.244314 5.244314 5.244314 5.244314 5.167059 5.167059 5.167059 5.167059 5.167059 5.167059 5.167059 5.167059 5.167059 5.167059 5.089804 5.089804 5.089804 5.089804 5.089804 5.089804 5.089804 5.089804 5.089804 5.0125494
5.167059 5.244314 5.244314 5.244314 5.244314 5.244314 5.244314 5.244314 5.244314 5.244314 5.244314 5.244314 5.244314 5.244314 5.244314 5.244314 5.244314 5.244314 5.244314 5.244314 5.167059 5.167059 5.167059 5.167059 5.167059 5.167059 5.167059 5.167059 5.167059 5.244314 5.244314 5.244314 5.244314 5.244314 5.321569 5.321569 5.321569 5.321569 5.321569 5.244314 5.244314 5.244314 5.244314 5.321569 5.321569 5.321569 5.321569 5.3988237 5.3988237 5.3988237 5.3988237 5.3988237 5.3988237 5.4760785 5.4760785 5.4760785 5.4760785 5.4760785 5.4760785 5.5533338 5.5533338 5.5533338 5.5533338 5.5533338 5.5533338 5.5533338 5.5533338 5.6305885 5.6305885 5.5533338 5.6305885 5.6305885 5.6305885 5.6305885 5.6305885 5.6305885 5.5533338 5.5533338 5.5533338 5.4760785 5.4760785 5.3988237 5.3988237 5.321569 5.321569 5.321569 5.321569 5.321569 5.321569 5.321569 5.244314 5.244314 5.244314 5.3988237 5.321569 5.321569 5.244314 5.244314 5.167059 5.167059 5.089804 5.089804 5.0125494 5.0125494 4.9352946 4.9352946 4.9352946 4.9352946 4.8580394 4.8580394 4.7807846 4.7807846 4.7807846 4.7807846 4.7807846 4.7807846 4.70353 4.70353 4.70353 4.70353 4.7807846 4.7807846 4.7807846 4.70353 4.70353 4.70353 4.626275 4.626275 4.626275 4.54902 4.54902 4.54902 4.471765 4.471765 4.471765 4.471765 4.471765 4.471765 4.3945103 4.3945103 4.3945103 4.3945103 4.3945103 4.471765 4.471765 4.471765 4.471765 4.471765 4.471765 4.3945103 4.3945103 4.3945103 4.3945103 4.3945103 4.3945103 4.3945103 4.3945103 4.3945103 4.3945103 4.3945103 4.3945103 4.3945103 4.471765 4.471765 4.471765 4.471765 4.471765 4.471765 4.471765 4.471765 4.471765 4.471765 4.471765 4.471765 4.471765 4.54902 4.54902 4.54902 4.54902 4.70353 4.70353 4.70353 4.70353 4.626275 4.626275 4.70353 4.70353 4.70353 4.70353 4.70353 4.70353 4.70353 4.626275 4.626275 4.626275 4.626275 4.7807846 4.7807846 4.70353 4.70353 4.70353 4.70353 4.626275 4.70353 4.70353 4.70353 4.70353 4.7807846 4.7807846 4.7807846 4.7807846 4.7807846 4.7807846 4.7807846 4.7807846 4.7807846 4.8580394 4.8580394 4.8580394 4.9352946 4.9352946 5.0125494 5.0125494 5.0125494 5.089804 5.089804 5.089804 5.089804 5.089804 5.089804 5.167059 5.167059 5.167059 5.244314 5.321569 5.321569 5.321569 5.321569 5.321569 5.321569 5.321569 5.321569 5.321569 5.321569 5.321569 5.321569 5.321569 5.3988237 5.3988237 5.3988237 5.3988237 5.3988237 5.3988237 5.3988237 5.3988237 5.3988237 5.3988237 5.3988237 5.3988237 5.3988237 5.3988237 5.3988237 5.3988237 5.3988237 5.3988237 5.3988237 5.3988237 5.3988237 5.3988237 5.3988237 5.321569 5.321569 5.321569 5.321569 5.321569 5.321569 5.321569 5.321569 5.321569 5.321569 5.321569 5.321569 5.321569 5.321569 5.321569 5.321569 5.244314 5.244314 5.244314 5.244314 5.244314 5.244314 5.244314 5.244314 5.167059 5.167059 5.167059 5.167059 5.167059 5.167059 5.167059 5.167059 5.167059 5.167059 5.089804 5.089804 5.089804 5.089804 5.089804 5.089804 5.089804 5.089804 5.089804 5.0125494 5.0125494 5.0125494 5.0125494
5.167059 5.167059 5.167059 5.167059 5.167059 5.167059 5.167059 5.167059 5.167059 5.167059 5.167059 5.167059 5.167059 5.167059 5.167059 5.167059 5.167059 5.167059 5.167059 5.167059 5.167059 5.167059 5.167059 5.167059 5.167059 5.167059 5.167059 5.167059 5.167059 5.167059 5.167059 5.244314 5.244314 5.244314 5.244314 5.244314 5.244314 5.244314 5.244314 5.244314 5.244314 5.244314 5.244314 5.244314 5.244314 5.321569 5.321569 5.321569 5.321569 5.321569 5.321569 5.3988237 5.3988237 5.3988237 5.3988237 5.3988237 5.4760785 5.4760785 5.4760785 5.4760785 5.5533338 5.5533338 5.5533338 5.5533338 5.5533338 5.5533338 5.5533338 5.5533338 5.5533338 5.5533338 5.5533338 5.6305885 5.6305885 5.6305885 5.5533338 5.5533338 5.5533338 5.5533338 5.5533338 5.4760785 5.4760785 5.3988237 5.321569 5.321569 5.244314 5.321569 5.321569 5.321569 5.321569 5.321569 5.244314 5.3988237 5.3988237 5.321569 5.321569 5.321569 5.244314 5.244314 5.167059 5.167059 5.089804 5.0125494 5.0125494 5.0125494 4.9352946 4.9352946 4.9352946 4.9352946 4.8580394 4.8580394 4.8580394 4.8580394 4.7807846 4.7807846 4.7807846 4.70353 4.70353 4.70353 4.70353 4.70353 4.7807846 4.7807846 4.7807846 4.70353 4.70353 4.626275 4.626275 4.626275 4.54902 4.54902 4.54902 4.471765 4.471765 4.471765 4.471765 4.471765 4.3945103 4.3945103 4.3945103 4.3945103 4.3945103 4.3945103 4.3945103 4.3945103 4.3945103 4.3945103 4.3945103 4.3945103 4.3945103 4.3945103 4.3945103 4.3945103 4.3945103 4.3945103 4.3945103 4.3945103 4.3945103 4.3172555 4.3172555 4.3172555 4.3945103 4.3945103 4.3945103 4.3945103 4.3945103 4.3945103 4.3945103 4.3945103 4.3945103 4.3945103 4.3945103 4.3945103 4.3945103 4.3945103 4.3945103 4.54902 4.54902 4.54902 4.54902 4.70353 4.70353 4.70353 4.626275 4.626275 4.626275 4.70353 4.70353 4.70353 4.70353 4.70353 4.70353 4.626275 4.626275 4.626275 4.626275 4.626275 4.7807846 4.70353 4.70353 4.70353 4.70353 4.70353 4.626275 4.626275 4.70353 4.70353 4.70353 4.70353 4.70353 4.70353 4.70353 4.70353 4.70353 4.7807846 4.7807846 4.7807846 4.7807846 4.7807846 4.8580394 4.8580394 4.8580394 4.9352946 4.9352946 5.0125494 5.0125494 5.0125494 5.0125494 5.0125494 5.0125494 5.089804 5.089804 5.089804 5.167059 5.167059 5.167059 5.244314 5.244314 5.244314 5.244314 5.244314 5.321569 5.244314 5.244314 5.244314 5.244314 5.244314 5.321569 5.321569 5.321569 5.321569 5.321569 5.321569 5.3988237 5.3988237 5.3988237 5.3988237 5.3988237 5.321569 5.321569 5.321569 5.321569 5.321569 5.321569 5.321569 5.321569 5.321569 5.321569 5.321569 5.321569 5.321569 5.321569 5.321569 5.321569 5.321569 5.321569 5.321569 5.321569 5.321569 5.321569 5.321569 5.321569 5.321569 5.244314 5.244314 5.244314 5.244314 5.244314 5.244314 5.244314 5.244314 5.244314 5.167059 5.167059 5.167059 5.167059 5.167059 5.167059 5.167059 5.167059 5.167059 5.167059 5.089804 5.089804 5.089804 5.089804 5.089804 5.089804 5.089804 5.089804 5.089804 5.0125494 5.0125494 5.0125494 5.0125494 5.0125494 5.0125494 5.0125494
5.167059 5.167059 5.167059 5.167059 5.167059 5.167059 5.167059 5.167059 5.167059 5.167059 5.167059 5.167059 5.167059 5.167059 5.167059 5.167059 5.167059 5.167059 5.167059 5.167059 5.089804 5.089804 5.089804 5.089804 5.089804 5.089804 5.089804 5.167059 5.167059 5.167059 5.167059 5.167059 5.167059 5.244314 5.244314 5.244314 5.244314 5.244314 5.244314 5.167059 5.167059 5.167059 5.244314 5.244314 5.244314 5.244314 5.321569 5.321569 5.321569 5.321569 5.321569 5.321569 5.321569 5.3988237 5.3988237 5.3988237 5.3988237 5.3988237 5.4760785 5.4760785 5.4760785 5.4760785 5.4760785 5.4760785 5.4760785 5.5533338 5.5533338 5.5533338 5.5533338 5.5533338 5.5533338 5.5533338 5.5533338 5.5533338 5.5533338 5.5533338 5.5533338 5.5533338 5.5533338 5.4760785 5.4760785 5.3988237 5.321569 5.321569 5.244314 5.321569 5.321569 5.321569 5.321569 5.4760785 5.4760785 5.3988237 5.3988237 5.321569 5.321569 5.244314 5.244314 5.167059 5.167059 5.167059 5.089804 5.0125494 5.0125494 4.9352946 4.9352946 4.9352946 4.9352946 4.8580394 4.8580394 4.8580394 4.8580394 4.8580394 4.7807846 4.7807846 4.7807846 4.70353 4.70353 4.70353 4.70353 4.70353 4.70353 4.70353 4.70353 4.70353 4.70353 4.626275 4.626275 4.626275 4.54902 4.54902 4.471765 4.471765 4.471765 4.471765 4.471765 4.3945103 4.3945103 4.3945103 4.3945103 4.3945103 4.3945103 4.3945103 4.3945103 4.3945103 4.3945103 4.3945103 4.3945103 4.3945103 4.3945103 4.3945103 4.3945103 4.3172555 4.3172555 4.3172555 4.3172555 4.3172555 4.3172555 4.3172555 4.3172555 4.3172555 4.3172555 4.3945103 4.3945103 4.3945103 4.3945103 4.3945103 4.3945103 4.3945103 4.3945103 4.3945103 4.3945103 4.3945103 4.3945103 4.3945103 4.3945103 4.471765 4.54902 4.54902 4.626275 4.626275 4.626275 4.626275 4.626275 4.626275 4.626275 4.626275 4.70353 4.70353 4.70353 4.70353 4.626275 4.626275 4.626275 4.626275 4.626275 4.7807846 4.7807846 4.70353 4.70353 4.70353 4.70353 4.70353 4.626275 4.626275 4.70353 4.70353 4.70353 4.70353 4.70353 4.70353 4.70353 4.70353 4.70353 4.70353 4.70353 4.70353 4.7807846 4.7807846 4.7807846 4.7807846 4.8580394 4.8580394 4.9352946 4.9352946 4.9352946 4.9352946 4.9352946 5.0125494 5.0125494 5.0125494 5.0125494 5.0125494 5.089804 5.089804 5.089804 5.167059 5.167059 5.244314 5.244314 5.244314 5.244314 5.244314 5.244314 5.244314 5.244314 5.244314 5.244314 5.244314 5.244314 5.321569 5.321569 5.321569 5.321569 5.321569 5.321569 5.321569 5.321569 5.321569 5.321569 5.321569 5.321569 5.321569 5.321569 5.321569 5.321569 5.321569 5.321569 5.321569 5.321569 5.321569 5.321569 5.321569 5.321569 5.244314 5.244314 5.244314 5.244314 5.244314 5.244314 5.244314 5.244314 5.244314 5.244314 5.244314 5.244314 5.244314 5.244314 5.244314 5.167059 5.167059 5.167059 5.167059 5.167059 5.167059 5.167059 5.167059 5.167059 5.167059 5.089804 5.089804 5.089804 5.089804 5.089804 5.089804 5.089804 5.089804 5.089804 5.0125494 5.0125494 5.0125494 5.0125494 5.0125494 5.0125494 5.0125494 5.0125494 5.0125494 5.0125494
5.089804 5.089804 5.089804 5.089804 5.089804 5.167059 5.167059 5.167059 5.167059 5.167059 5.167059 5.167059 5.089804 5.167059 5.167059 5.167059 5.167059 5.167059 5.089804 5.089804 5.089804 5.089804 5.089804 5.089804 5.089804 5.089804 5.089804 5.089804 5.089804 5.167059 5.167059 5.167059 5.167059 5.167059 5.167059 5.167059 5.167059 5.244314 5.167059 5.167059 5.167059 5.167059 5.167059 5.167059 5.244314 5.244314 5.244314 5.321569 5.321569 5.321569 5.321569 5.321569 5.321569 5.321569 5.321569 5.3988237 5.3988237 5.3988237 5.3988237 5.4760785 5.4760785 5.4760785 5.4760785 5.4760785 5.4760785 5.4760785 5.4760785 5.4760785 5.4760785 5.5533338 5.5533338 5.6305885 5.5533338 5.5533338 5.5533338 5.5533338 5.5533338 5.6305885 5.5533338 5.4760785 5.4760785 5.3988237 5.321569 5.321569 5.244314 5.321569 5.3988237 5.3988237 5.4760785 5.4760785 5.4760785 5.3988237 5.3988237 5.321569 5.321569 5.244314 5.244314 5.167059 5.167059 5.089804 5.089804 5.0125494 5.0125494 4.9352946 4.9352946 4.9352946 4.9352946 4.8580394 4.8580394 4.8580394 4.8580394 4.8580394 4.7807846 4.7807846 4.70353 4.70353 4.70353 4.70353 4.70353 4.70353 4.70353 4.70353 4.70353 4.70353 4.626275 4.626275 4.626275 4.54902 4.54902 4.54902 4.471765 4.471765 4.471765 4.471765 4.3945103 4.3945103 4.3945103 4.3945103 4.3945103 4.3172555 4.3172555 4.3172555 4.3945103 4.3172555 4.3945103 4.3945103 4.3945103 4.3945103 4.3172555 4.3172555 4.3172555 4.3172555 4.3172555 4.3172555 4.3172555 4.3172555 4.3172555 4.3172555 4.3172555 4.3172555 4.3172555 4.3172555 4.3945103 4.3945103 4.3945103 4.3945103 4.3945103 4.3945103 4.3945103 4.3945103 4.3945103 4.3945103 4.3945103 4.3945103 4.3945103 4.471765 4.626275 4.626275 4.626275 4.626275 4.626275 4.626275 4.626275 4.626275 4.626275 4.626275 4.626275 4.70353 4.70353 4.626275 4.626275 4.626275 4.626275 4.626275 4.70353 4.70353 4.70353 4.70353 4.70353 4.70353 4.70353 4.70353 4.626275 4.70353 4.70353 4.626275 4.626275 4.626275 4.70353 4.70353 4.70353 4.70353 4.70353 4.70353 4.70353 4.70353 4.70353 4.70353 4.70353 4.7807846 4.7807846 4.8580394 4.8580394 4.8580394 4.9352946 4.9352946 4.9352946 4.9352946 4.9352946 4.9352946 4.9352946 5.0125494 5.0125494 5.0125494 5.089804 5.089804 5.089804 5.167059 5.167059 5.167059 5.167059 5.167059 5.167059 5.167059 5.167059 5.167059 5.167059 5.167059 5.244314 5.244314 5.244314 5.244314 5.244314 5.244314 5.244314 5.321569 5.321569 5.321569 5.321569 5.321569 5.244314 5.244314 5.244314 5.244314 5.244314 5.244314 5.244314 5.244314 5.244314 5.244314 5.244314 5.244314 5.244314 5.244314 5.244314 5.244314 5.244314 5.244314 5.244314 5.244314 5.244314 5.244314 5.244314 5.244314 5.167059 5.167059 5.167059 5.167059 5.167059 5.167059 5.167059 5.167059 5.167059 5.167059 5.167059 5.089804 5.089804 5.089804 5.089804 5.089804 5.089804 5.089804 5.089804 5.089804 5.0125494 5.0125494 5.0125494 5.0125494 5.0125494 5.0125494 5.0125494 5.0125494 5.0125494 5.0125494 4.9352946 4.9352946 4.9352946
5.089804 5.089804 5.089804 5.089804 5.089804 5.089804 5.089804 5.089804 5.089804 5.089804 5.089804 5.089804 5.089804 5.089804 5.089804 5.089804 5.089804 5.089804 5.089804 5.089804 5.0125494 5.0125494 5.0125494 5.0125494 5.0125494 5.0125494 5.089804 5.089804 5.089804 5.089804 5.167059 5.167059 5.167059 5.167059 5.167059 5.167059 5.167059 5.167059 5.167059 5.167059 5.167059 5.167059 5.167059 5.167059 5.167059 5.244314 5.244314 5.244314 5.244314 5.244314 5.244314 5.321569 5.321569 5.321569 5.321569 5.321569 5.321569 5.3988237 5.3988237 5.3988237 5.4760785 5.4760785 5.4760785 5.4760785 5.4760785 5.4760785 5.4760785 5.4760785 5.4760785 5.5533338 5.5533338 5.6305885 5.6305885 5.6305885 5.6305885 5.6305885 5.6305885 5.6305885 5.5533338 5.4760785 5.4760785 5.3988237 5.321569 5.321569 5.4760785 5.4760785 5.4760785 5.4760785 5.4760785 5.4760785 5.4760785 5.3988237 5.3988237 5.321569 5.321569 5.244314 5.244314 5.167059 5.167059 5.089804 5.089804 5.0125494 5.0125494 4.9352946 4.9352946 4.9352946 4.9352946 4.9352946 4.9352946 4.9352946 4.8580394 4.8580394 4.7807846 4.7807846 4.70353 4.70353 4.70353 4.70353 4.70353 4.70353 4.70353 4.70353 4.70353 4.626275 4.626275 4.626275 4.54902 4.54902 4.54902 4.471765 4.471765 4.471765 4.471765 4.3945103 4.3945103 4.3945103 4.3945103 4.3172555 4.3172555 4.3172555 4.3172555 4.3172555 4.3172555 4.3172555 4.3172555 4.3172555 4.3172555 4.3172555 4.3172555 4.3172555 4.3172555 4.3172555 4.3172555 4.2400002 4.3172555 4.3172555 4.3172555 4.3172555 4.3172555 4.3172555 4.3172555 4.3172555 4.3172555 4.3172555 4.3945103 4.3945103 4.3945103 4.3945103 4.3945103 4.3945103 4.3945103 4.3945103 4.3945103 4.3945103 4.3945103 4.471765 4.626275 4.626275 4.54902 4.626275 4.626275 4.626275 4.626275 4.626275 4.626275 4.626275 4.626275 4.626275 4.626275 4.626275 4.626275 4.626275 4.626275 4.70353 4.70353 4.70353 4.70353 4.70353 4.70353 4.70353 4.70353 4.70353 4.70353 4.626275 4.626275 4.626275 4.626275 4.626275 4.626275 4.626275 4.626275 4.626275 4.626275 4.626275 4.626275 4.626275 4.70353 4.70353 4.70353 4.70353 4.70353 4.7807846 4.7807846 4.8580394 4.8580394 4.8580394 4.8580394 4.8580394 4.9352946 4.9352946 4.9352946 4.9352946 4.9352946 4.9352946 5.0125494 5.0125494 5.0125494 5.089804 5.089804 5.167059 5.167059 5.167059 5.167059 5.167059 5.167059 5.167059 5.167059 5.167059 5.167059 5.167059 5.167059 5.167059 5.244314 5.244314 5.244314 5.244314 5.244314 5.244314 5.244314 5.244314 5.244314 5.244314 5.244314 5.244314 5.244314 5.244314 5.244314 5.244314 5.244314 5.244314 5.244314 5.244314 5.244314 5.244314 5.167059 5.167059 5.167059 5.167059 5.167059 5.167059 5.167059 5.167059 5.167059 5.167059 5.167059 5.167059 5.167059 5.167059 5.167059 5.167059 5.167059 5.167059 5.089804 5.089804 5.089804 5.089804 5.089804 5.089804 5.089804 5.089804 5.0125494 5.0125494 5.0125494 5.0125494 5.0125494 5.0125494 5.0125494 5.0125494 5.0125494 5.0125494 4.9352946 4.9352946 4.9352946 4.9352946 4.9352946 4.9352946 4.9352946
5.0125494 5.0125494 5.0125494 5.089804 5.089804 5.089804 5.089804 5.089804 5.089804 5.089804 5.089804 5.089804 5.089804 5.089804 5.089804 5.089804 5.089804 5.089804 5.0125494 5.0125494 5.0125494 5.0125494 5.0125494 5.0125494 5.0125494 5.0125494 5.0125494 5.089804 5.089804 5.089804 5.089804 5.089804 5.089804 5.089804 5.089804 5.167059 5.167059 5.167059 5.089804 5.089804 5.089804 5.167059 5.167059 5.167059 5.167059 5.167059 5.244314 5.244314 5.244314 5.244314 5.244314 5.244314 5.244314 5.321569 5.321569 5.321569 5.321569 5.321569 5.3988237 5.3988237 5.3988237 5.3988237 5.3988237 5.4760785 5.4760785 5.4760785 5.4760785 5.4760785 5.4760785 5.5533338 5.6305885 5.6305885 5.6305885 5.6305885 5.6305885 5.6305885 5.6305885 5.6305885 5.6305885 5.6305885 5.6305885 5.6305885 5.6305885 5.5533338 5.5533338 5.5533338 5.4760785 5.4760785 5.4760785 5.4760785 5.4760785 5.3988237 5.3988237 5.321569 5.321569 5.244314 5.167059 5.167059 5.089804 5.089804 5.089804 5.0125494 5.0125494 4.9352946 4.9352946 5.0125494 5.0125494 5.0125494 4.9352946 4.9352946 4.9352946 4.8580394 4.7807846 4.7807846 4.70353 4.70353 4.70353 4.70353 4.70353 4.70353 4.70353 4.626275 4.626275 4.626275 4.626275 4.626275 4.54902 4.54902 4.471765 4.471765 4.471765 4.471765 4.3945103 4.3945103 4.3945103 4.3945103 4.3172555 4.3172555 4.3172555 4.3172555 4.3172555 4.3172555 4.3172555 4.3172555 4.3172555 4.3172555 4.3172555 4.3172555 4.3172555 4.3172555 4.3172555 4.2400002 4.2400002 4.2400002 4.2400002 4.2400002 4.2400002 4.2400002 4.2400002 4.2400002 4.2400002 4.2400002 4.3172555 4.3172555 4.3172555 4.3172555 4.3172555 4.3172555 4.3172555 4.3172555 4.3172555 4.3172555 4.3172555 4.3172555 4.3945103 4.626275 4.626275 4.54902 4.54902 4.626275 4.626275 4.626275 4.626275 4.626275 4.626275 4.626275 4.626275 4.626275 4.626275 4.626275 4.626275 4.626275 4.70353 4.70353 4.70353 4.70353 4.70353 4.70353 4.70353 4.70353 4.70353 4.70353 4.626275 4.626275 4.626275 4.626275 4.626275 4.626275 4.626275 4.626275 4.626275 4.626275 4.626275 4.626275 4.626275 4.626275 4.626275 4.626275 4.626275 4.70353 4.70353 4.70353 4.7807846 4.7807846 4.7807846 4.8580394 4.8580394 4.8580394 4.8580394 4.8580394 4.8580394 4.8580394 4.9352946 4.9352946 4.9352946 4.9352946 5.0125494 5.0125494 5.0125494 5.089804 5.089804 5.089804 5.089804 5.089804 5.089804 5.089804 5.089804 5.089804 5.089804 5.089804 5.167059 5.167059 5.167059 5.167059 5.167059 5.167059 5.167059 5.167059 5.167059 5.167059 5.167059 5.167059 5.167059 5.167059 5.167059 5.167059 5.167059 5.167059 5.167059 5.167059 5.167059 5.167059 5.167059 5.167059 5.167059 5.167059 5.167059 5.167059 5.167059 5.167059 5.167059 5.167059 5.167059 5.167059 5.167059 5.167059 5.167059 5.167059 5.089804 5.089804 5.089804 5.089804 5.089804 5.089804 5.089804 5.089804 5.089804 5.089804 5.0125494 5.0125494 5.0125494 5.0125494 5.0125494 5.0125494 5.0125494 5.0125494 5.0125494 4.9352946 4.9352946 4.9352946 4.9352946 4.9352946 4.9352946 4.9352946 4.9352946 4.9352946 4.9352946
5.0125494 5.0125494 5.0125494 5.0125494 5.0125494 5.0125494 5.0125494 5.0125494 5.0125494 5.0125494 5.0125494 5.0125494 5.0125494 5.0125494 5.0125494 5.0125494 5.0125494 5.0125494 5.0125494 5.0125494 5.0125494 4.9352946 5.0125494 5.0125494 5.0125494 5.0125494 5.0125494 5.0125494 5.0125494 5.089804 5.089804 5.089804 5.089804 5.089804 5.089804 5.089804 5.089804 5.089804 5.089804 5.089804 5.089804 5.089804 5.089804 5.089804 5.167059 5.167059 5.167059 5.244314 5.244314 5.244314 5.244314 5.244314 5.244314 5.244314 5.244314 5.244314 5.321569 5.321569 5.321569 5.3988237 5.3988237 5.3988237 5.3988237 5.3988237 5.4760785 5.4760785 5.4760785 5.4760785 5.5533338 5.5533338 5.6305885 5.6305885 5.6305885 5.6305885 5.6305885 5.6305885 5.6305885 5.6305885 5.6305885 5.6305885 5.6305885 5.6305885 5.5533338 5.5533338 5.5533338 5.5533338 5.4760785 5.4760785 5.4760785 5.4760785 5.3988237 5.3988237 5.3988237 5.321569 5.321569 5.244314 5.167059 5.167059 5.089804 5.089804 5.0125494 5.0125494 4.9352946 5.0125494 5.0125494 5.0125494 5.0125494 5.0125494 5.0125494 4.9352946 4.9352946 4.8580394 4.8580394 4.7807846 4.70353 4.70353 4.70353 4.70353 4.70353 4.70353 4.626275 4.626275 4.626275 4.626275 4.626275 4.54902 4.54902 4.54902 4.471765 4.471765 4.471765 4.3945103 4.3945103 4.3945103 4.3945103 4.3172555 4.3172555 4.3172555 4.3172555 4.3172555 4.3172555 4.3172555 4.3172555 4.3172555 4.3172555 4.3172555 4.3172555 4.3172555 4.2400002 4.2400002 4.2400002 4.2400002 4.2400002 4.2400002 4.2400002 4.2400002 4.2400002 4.2400002 4.2400002 4.2400002 4.2400002 4.2400002 4.3172555 4.3172555 4.3172555 4.3172555 4.3172555 4.3172555 4.3172555 4.3172555 4.3172555 4.3172555 4.3172555 4.3172555 4.3172555 4.626275 4.54902 4.54902 4.54902 4.54902 4.626275 4.626275 4.626275 4.626275 4.626275 4.54902 4.626275 4.626275 4.70353 4.626275 4.626275 4.626275 4.70353 4.70353 4.70353 4.70353 4.70353 4.70353 4.70353 4.70353 4.70353 4.626275 4.626275 4.626275 4.626275 4.626275 4.626275 4.626275 4.626275 4.626275 4.626275 4.626275 4.626275 4.626275 4.626275 4.626275 4.626275 4.626275 4.626275 4.626275 4.626275 4.626275 4.70353 4.7807846 4.7807846 4.7807846 4.7807846 4.7807846 4.8580394 4.8580394 4.8580394 4.8580394 4.8580394 4.8580394 4.8580394 4.8580394 4.9352946 4.9352946 4.9352946 5.0125494 5.0125494 5.089804 5.089804 5.089804 5.089804 5.089804 5.089804 5.089804 5.089804 5.089804 5.089804 5.089804 5.089804 5.167059 5.167059 5.167059 5.167059 5.167059 5.167059 5.167059 5.167059 5.167059 5.167059 5.167059 5.167059 5.167059 5.167059 5.167059 5.167059 5.167059 5.167059 5.167059 5.167059 5.167059 5.167059 5.167059 5.167059 5.167059 5.167059 5.089804 5.089804 5.089804 5.089804 5.089804 5.089804 5.089804 5.089804 5.089804 5.089804 5.089804 5.089804 5.089804 5.089804 5.089804 5.089804 5.0125494 5.0125494 5.0125494 5.0125494 5.0125494 5.0125494 5.0125494 5.0125494 5.0125494 4.9352946 4.9352946 4.9352946 4.9352946 4.9352946 4.9352946 4.9352946 4.9352946 4.9352946 4.9352946 4.8580394 4.8580394 4.8580394
5.0125494 5.0125494 5.0125494 5.0125494 5.0125494 5.0125494 5.0125494 5.0125494 5.0125494 5.0125494 5.0125494 5.0125494 5.0125494 5.0125494 5.0125494 5.0125494 5.0125494 5.0125494 5.0125494 5.0125494 4.9352946 4.9352946 4.9352946 4.9352946 4.9352946 4.9352946 5.0125494 5.0125494 5.0125494 5.0125494 5.0125494 5.0125494 5.0125494 5.0125494 5.089804 5.089804 5.089804 5.089804 5.089804 5.089804 5.089804 5.089804 5.089804 5.089804 5.167059 5.167059 5.167059 5.167059 5.167059 5.167059 5.167059 5.244314 5.244314 5.244314 5.244314 5.244314 5.244314 5.321569 5.321569 5.321569 5.3988237 5.3988237 5.3988237 5.4760785 5.4760785 5.4760785 5.4760785 5.4760785 5.5533338 5.5533338 5.6305885 5.6305885 5.6305885 5.6305885 5.6305885 5.6305885 5.6305885 5.6305885 5.6305885 5.6305885 5.5533338 5.5533338 5.5533338 5.5533338 5.5533338 5.5533338 5.4760785 5.4760785 5.4760785 5.4760785 5.3988237 5.3988237 5.3988237 5.3988237 5.321569 5.321569 5.321569 5.167059 5.089804 5.0125494 5.0125494 5.0125494 5.0125494 5.0125494 5.0125494 5.0125494 5.0125494 5.0125494 5.0125494 4.9352946 4.9352946 4.8580394 4.8580394 4.7807846 4.7807846 4.70353 4.70353 4.70353 4.626275 4.626275 4.626275 4.626275 4.626275 4.626275 4.626275 4.54902 4.54902 4.471765 4.471765 4.471765 4.471765 4.3945103 4.3945103 4.3945103 4.3172555 4.3172555 4.3172555 4.3172555 4.3172555 4.3172555 4.3172555 4.3172555 4.2400002 4.2400002 4.2400002 4.2400002 4.2400002 4.2400002 4.2400002 4.2400002 4.2400002 4.2400002 4.2400002 4.2400002 4.2400002 4.2400002 4.2400002 4.2400002 4.2400002 4.2400002 4.2400002 4.2400002 4.2400002 4.2400002 4.3172555 4.3172555 4.3172555 4.3172555 4.3172555 4.3172555 4.3172555 4.3172555 4.3172555 4.3172555 4.3172555 4.54902 4.54902 4.54902 4.54902 4.54902 4.54902 4.626275 4.626275 4.626275 4.626275 4.626275 4.626275 4.70353 4.70353 4.626275 4.626275 4.626275 4.70353 4.70353 4.70353 4.70353 4.70353 4.70353 4.70353 4.70353 4.626275 4.626275 4.626275 4.626275 4.626275 4.626275 4.626275 4.626275 4.626275 4.54902 4.626275 4.626275 4.626275 4.626275 4.626275 4.626275 4.626275 4.626275 4.626275 4.626275 4.626275 4.626275 4.626275 4.70353 4.70353 4.7807846 4.7807846 4.7807846 4.7807846 4.7807846 4.7807846 4.7807846 4.7807846 4.8580394 4.8580394 4.8580394 4.8580394 4.8580394 4.9352946 4.9352946 4.9352946 5.0125494 5.0125494 5.0125494 5.0125494 5.0125494 5.0125494 5.0125494 5.0125494 5.0125494 5.0125494 5.0125494 5.089804 5.089804 5.089804 5.089804 5.089804 5.089804 5.089804 5.167059 5.167059 5.167059 5.167059 5.167059 5.167059 5.167059 5.167059 5.089804 5.089804 5.089804 5.089804 5.089804 5.089804 5.089804 5.089804 5.089804 5.089804 5.089804 5.089804 5.089804 5.089804 5.089804 5.089804 5.089804 5.089804 5.089804 5.089804 5.089804 5.089804 5.089804 5.089804 5.0125494 5.0125494 5.0125494 5.0125494 5.0125494 5.0125494 5.0125494 5.0125494 5.0125494 5.0125494 5.0125494 4.9352946 4.9352946 4.9352946 4.9352946 4.9352946 4.9352946 4.9352946 4.9352946 4.9352946 4.8580394 4.8580394 4.8580394 4.8580394 4.8580394 4.8580394
4.9352946 4.9352946 4.9352946 4.9352946 4.9352946 4.9352946 4.9352946 4.9352946 4.9352946 4.9352946 4.9352946 4.9352946 4.9352946 5.0125494 5.0125494 4.9352946 4.9352946 5.0125494 4.9352946 4.9352946 4.9352946 4.9352946 4.9352946 4.9352946 4.9352946 4.9352946 4.9352946 5.0125494 5.0125494 5.0125494 5.0125494 5.0125494 5.0125494 5.0125494 5.0125494 5.0125494 5.089804 5.089804 5.0125494 5.0125494 5.0125494 5.089804 5.089804 5.089804 5.089804 5.167059 5.167059 5.167059 5.167059 5.167059 5.167059 5.167059 5.167059 5.167059 5.167059 5.244314 5.244314 5.321569 5.321569 5.321569 5.321569 5.3988237 5.3988237 5.4760785 5.4760785 5.4760785 5.5533338 5.5533338 5.5533338 5.6305885 5.6305885 5.6305885 5.6305885 5.6305885 5.6305885 5.6305885 5.6305885 5.6305885 5.6305885 5.5533338 5.5533338 5.5533338 5.5533338 5.5533338 5.5533338 5.5533338 5.4760785 5.4760785 5.4760785 5.4760785 5.3988237 5.3988237 5.3988237 5.3988237 5.3988237 5.3988237 5.4760785 5.3988237 5.3988237 5.321569 5.244314 5.167059 5.089804 5.0125494 5.0125494 5.0125494 5.0125494 5.0125494 4.9352946 4.9352946 4.9352946 4.8580394 4.8580394 4.7807846 4.7807846 4.70353 4.70353 4.626275 4.626275 4.626275 4.626275 4.626275 4.626275 4.626275 4.54902 4.54902 4.54902 4.471765 4.471765 4.471765 4.3945103 4.3945103 4.3945103 4.3172555 4.3172555 4.3172555 4.3172555 4.3172555 4.3172555 4.2400002 4.2400002 4.2400002 4.2400002 4.2400002 4.2400002 4.2400002 4.2400002 4.2400002 4.2400002 4.2400002 4.2400002 4.2400002 4.1627455 4.1627455 4.2400002 4.2400002 4.2400002 4.2400002 4.2400002 4.2400002 4.2400002 4.2400002 4.2400002 4.2400002 4.2400002 4.2400002 4.2400002 4.2400002 4.3172555 4.3172555 4.3172555 4.3172555 4.3172555 4.3172555 4.54902 4.54902 4.54902 4.54902 4.54902 4.54902 4.54902 4.626275 4.626275 4.626275 4.626275 4.626275 4.626275 4.70353 4.70353 4.626275 4.626275 4.626275 4.626275 4.70353 4.70353 4.70353 4.70353 4.70353 4.70353 4.626275 4.626275 4.626275 4.626275 4.626275 4.626275 4.626275 4.626275 4.54902 4.54902 4.54902 4.54902 4.54902 4.626275 4.626275 4.626275 4.626275 4.626275 4.626275 4.626275 4.626275 4.626275 4.626275 4.626275 4.626275 4.70353 4.70353 4.70353 4.70353 4.7807846 4.7807846 4.7807846 4.7807846 4.7807846 4.7807846 4.7807846 4.7807846 4.7807846 4.8580394 4.8580394 4.8580394 4.8580394 4.9352946 4.9352946 5.0125494 5.0125494 5.0125494 5.0125494 5.0125494 5.0125494 5.0125494 5.0125494 5.0125494 5.0125494 5.0125494 5.0125494 5.089804 5.089804 5.089804 5.089804 5.089804 5.089804 5.089804 5.089804 5.089804 5.089804 5.089804 5.089804 5.089804 5.089804 5.089804 5.089804 5.089804 5.089804 5.089804 5.089804 5.089804 5.089804 5.089804 5.089804 5.089804 5.089804 5.089804 5.0125494 5.0125494 5.0125494 5.0125494 5.0125494 5.0125494 5.0125494 5.0125494 5.0125494 5.0125494 5.0125494 5.0125494 5.0125494 5.0125494 5.0125494 5.0125494 4.9352946 4.9352946 4.9352946 4.9352946 4.9352946 4.9352946 4.9352946 4.9352946 4.9352946 4.9352946 4.8580394 4.8580394 4.8580394 4.8580394 4.8580394 4.8580394 4.8580394 4.8580394 4.8580394
4.9352946 4.9352946 4.9352946 4.9352946 4.9352946 4.9352946 4.9352946 4.9352946 4.9352946 4.9352946 4.9352946 4.9352946 4.9352946 4.9352946 4.9352946 4.9352946 4.9352946 4.9352946 4.9352946 4.9352946 4.9352946 4.9352946 4.9352946 4.9352946 4.9352946 4.9352946 4.9352946 4.9352946 5.0125494 5.0125494 5.0125494 5.0125494 5.0125494 5.0125494 5.0125494 5.0125494 5.0125494 5.0125494 5.0125494 5.0125494 5.0125494 5.0125494 5.089804 5.089804 5.089804 5.089804 5.167059 5.167059 5.167059 5.167059 5.167059 5.167059 5.167059 5.167059 5.167059 5.244314 5.244314 5.244314 5.321569 5.321569 5.321569 5.3988237 5.3988237 5.4760785 5.4760785 5.5533338 5.5533338 5.5533338 5.5533338 5.5533338 5.6305885 5.6305885 5.6305885 5.5533338 5.5533338 5.5533338 5.6305885 5.6305885 5.5533338 5.5533338 5.5533338 5.5533338 5.5533338 5.5533338 5.5533338 5.5533338 5.4760785 5.4760785 5.4760785 5.4760785 5.4760785 5.4760785 5.4760785 5.3988237 5.3988237 5.3988237 5.3988237 5.3988237 5.3988237 5.3988237 5.321569 5.244314 5.167059 5.167059 5.089804 5.0125494 5.0125494 5.0125494 4.9352946 4.9352946 4.9352946 4.8580394 4.8580394 4.8580394 4.7807846 4.70353 4.70353 4.70353 4.70353 4.626275 4.626275 4.626275 4.626275 4.54902 4.54902 4.54902 4.471765 4.471765 4.471765 4.3945103 4.3945103 4.3945103 4.3945103 4.3172555 4.3172555 4.3172555 4.3172555 4.3172555 4.2400002 4.2400002 4.2400002 4.2400002 4.2400002 4.2400002 4.2400002 4.2400002 4.2400002 4.2400002 4.1627455 4.1627455 4.1627455 4.1627455 4.1627455 4.1627455 4.1627455 4.1627455 4.1627455 4.1627455 4.2400002 4.2400002 4.2400002 4.2400002 4.2400002 4.2400002 4.2400002 4.2400002 4.2400002 4.2400002 4.2400002 4.3172555 4.3172555 4.3172555 4.3172555 4.2400002 4.54902 4.54902 4.54902 4.54902 4.54902 4.54902 4.54902 4.626275 4.626275 4.626275 4.626275 4.626275 4.70353 4.70353 4.70353 4.70353 4.626275 4.626275 4.626275 4.626275 4.626275 4.626275 4.626275 4.626275 4.626275 4.626275 4.626275 4.626275 4.626275 4.626275 4.626275 4.626275 4.54902 4.54902 4.54902 4.54902 4.54902 4.54902 4.54902 4.54902 4.54902 4.54902 4.54902 4.626275 4.54902 4.54902 4.54902 4.626275 4.626275 4.626275 4.626275 4.626275 4.70353 4.70353 4.70353 4.70353 4.70353 4.70353 4.7807846 4.7807846 4.7807846 4.7807846 4.7807846 4.7807846 4.7807846 4.7807846 4.8580394 4.8580394 4.8580394 4.9352946 4.9352946 4.9352946 4.9352946 4.9352946 4.9352946 4.9352946 4.9352946 4.9352946 4.9352946 4.9352946 5.0125494 5.0125494 5.0125494 5.0125494 5.0125494 5.0125494 5.089804 5.089804 5.089804 5.089804 5.089804 5.089804 5.089804 5.089804 5.089804 5.089804 5.089804 5.0125494 5.0125494 5.0125494 5.0125494 5.0125494 5.0125494 5.0125494 5.0125494 5.0125494 5.0125494 5.0125494 5.0125494 5.0125494 5.0125494 5.0125494 5.0125494 5.0125494 5.0125494 5.0125494 5.0125494 5.0125494 5.0125494 5.0125494 5.0125494 4.9352946 4.9352946 4.9352946 4.9352946 4.9352946 4.9352946 4.9352946 4.9352946 4.9352946 4.9352946 4.9352946 4.8580394 4.8580394 4.8580394 4.8580394 4.8580394 4.8580394 4.8580394 4.8580394 4.8580394 4.7807846 4.7807846
4.8580394 4.9352946 4.9352946 4.9352946 4.9352946 4.8580394 4.8580394 4.8580394 4.8580394 4.8580394 4.8580394 4.9352946 4.9352946 4.9352946 4.9352946 4.9352946 4.9352946 4.9352946 4.9352946 4.9352946 4.8580394 4.8580394 4.8580394 4.8580394 4.8580394 4.9352946 4.9352946 4.9352946 4.9352946 4.9352946 4.9352946 4.9352946 4.9352946 4.9352946 5.0125494 5.0125494 5.0125494 5.0125494 5.0125494 5.0125494 5.0125494 5.0125494 5.0125494 5.089804 5.089804 5.089804 5.089804 5.089804 5.089804 5.167059 5.167059 5.167059 5.167059 5.167059 5.167059 5.167059 5.244314 5.244314 5.244314 5.321569 5.321569 5.3988237 5.3988237 5.4760785 5.4760785 5.4760785 5.4760785 5.4760785 5.5533338 5.5533338 5.5533338 5.5533338 5.5533338 5.5533338 5.5533338 5.5533338 5.5533338 5.5533338 5.5533338 5.5533338 5.5533338 5.5533338 5.5533338 5.5533338 5.5533338 5.5533338 5.4760785 5.5533338 5.6305885 5.5533338 5.4760785 5.4760785 5.4760785 5.3988237 5.3988237 5.3988237 5.3988237 5.3988237 5.3988237 5.321569 5.3988237 5.321569 5.244314 5.167059 5.089804 5.0125494 5.0125494 5.0125494 5.0125494 4.9352946 4.9352946 4.8580394 4.8580394 4.8580394 4.7807846 4.7807846 4.70353 4.70353 4.626275 4.626275 4.626275 4.626275 4.54902 4.54902 4.54902 4.54902 4.471765 4.471765 4.471765 4.3945103 4.3945103 4.3945103 4.3172555 4.3172555 4.3172555 4.3172555 4.3172555 4.2400002 4.2400002 4.2400002 4.2400002 4.2400002 4.2400002 4.2400002 4.1627455 4.1627455 4.1627455 4.1627455 4.1627455 4.1627455 4.1627455 4.1627455 4.1627455 4.1627455 4.1627455 4.1627455 4.1627455 4.1627455 4.1627455 4.1627455 4.1627455 4.1627455 4.1627455 4.2400002 4.2400002 4.2400002 4.2400002 4.2400002 4.2400002 4.3172555 4.3172555 4.3172555 4.3172555 4.3172555 4.471765 4.54902 4.54902 4.471765 4.471765 4.471765 4.471765 4.626275 4.626275 4.626275 4.626275 4.626275 4.70353 4.70353 4.70353 4.70353 4.626275 4.626275 4.626275 4.626275 4.626275 4.626275 4.626275 4.626275 4.626275 4.626275 4.626275 4.626275 4.626275 4.626275 4.54902 4.54902 4.54902 4.54902 4.54902 4.54902 4.54902 4.471765 4.54902 4.54902 4.54902 4.54902 4.54902 4.54902 4.54902 4.54902 4.54902 4.54902 4.54902 4.54902 4.54902 4.626275 4.626275 4.626275 4.626275 4.70353 4.70353 4.70353 4.70353 4.70353 4.70353 4.70353 4.70353 4.7807846 4.7807846 4.7807846 4.7807846 4.7807846 4.8580394 4.8580394 4.8580394 4.9352946 4.9352946 4.9352946 4.9352946 4.9352946 4.9352946 4.9352946 4.9352946 4.9352946 4.9352946 4.9352946 5.0125494 5.0125494 5.0125494 5.0125494 5.0125494 5.0125494 5.0125494 5.0125494 5.0125494 5.0125494 5.0125494 5.0125494 5.0125494 5.0125494 5.0125494 5.0125494 5.0125494 5.0125494 5.0125494 5.0125494 5.0125494 5.0125494 5.0125494 5.0125494 5.0125494 5.0125494 5.0125494 5.0125494 5.0125494 5.0125494 4.9352946 4.9352946 4.9352946 4.9352946 4.9352946 4.9352946 4.9352946 4.9352946 4.9352946 4.9352946 4.9352946 4.9352946 4.9352946 4.9352946 4.9352946 4.9352946 4.8580394 4.8580394 4.8580394 4.8580394 4.8580394 4.8580394 4.8580394 4.8580394 4.8580394 4.8580394 4.8580394 4.7807846 4.7807846 4.7807846 4.7807846
4.8580394 4.8580394 4.8580394 4.8580394 4.8580394 4.8580394 4.8580394 4.8580394 4.8580394 4.8580394 4.8580394 4.8580394 4.8580394 4.9352946 4.9352946 4.9352946 4.9352946 4.9352946 4.8580394 4.8580394 4.8580394 4.8580394 4.8580394 4.8580394 4.8580394 4.8580394 4.9352946 4.9352946 4.9352946 4.9352946 4.9352946 4.9352946 4.9352946 4.9352946 4.9352946 4.9352946 4.9352946 4.9352946 4.9352946 5.0125494 5.0125494 5.0125494 5.0125494 5.0125494 5.089804 5.089804 5.089804 5.089804 5.089804 5.089804 5.089804 5.089804 5.167059 5.167059 5.167059 5.167059 5.244314 5.244314 5.244314 5.321569 5.321569 5.3988237 5.4760785 5.4760785 5.4760785 5.4760785 5.4760785 5.4760785 5.4760785 5.5533338 5.5533338 5.5533338 5.5533338 5.5533338 5.5533338 5.5533338 5.5533338 5.5533338 5.5533338 5.5533338 5.5533338 5.5533338 5.6305885 5.6305885 5.6305885 5.6305885 5.6305885 5.6305885 5.5533338 5.5533338 5.4760785 5.4760785 5.4760785 5.3988237 5.3988237 5.3988237 5.3988237 5.3988237 5.321569 5.4760785 5.4760785 5.321569 5.244314 5.167059 5.089804 5.089804 5.0125494 5.0125494 5.0125494 4.9352946 4.9352946 4.8580394 4.8580394 4.7807846 4.7807846 4.7807846 4.70353 4.70353 4.626275 4.626275 4.626275 4.54902 4.54902 4.54902 4.54902 4.54902 4.471765 4.471765 4.471765 4.3945103 4.3945103 4.3172555 4.3172555 4.3172555 4.3172555 4.3172555 4.2400002 4.2400002 4.2400002 4.2400002 4.2400002 4.2400002 4.1627455 4.1627455 4.1627455 4.1627455 4.1627455 4.1627455 4.1627455 4.1627455 4.1627455 4.1627455 4.1627455 4.1627455 4.1627455 4.1627455 4.1627455 4.1627455 4.1627455 4.1627455 4.1627455 4.1627455 4.1627455 4.1627455 4.1627455 4.1627455 4.2400002 4.2400002 4.2400002 4.3172555 4.3172555 4.3172555 4.3172555 4.3172555 4.471765 4.471765 4.471765 4.471765 4.471765 4.471765 4.471765 4.626275 4.626275 4.626275 4.626275 4.70353 4.70353 4.70353 4.70353 4.626275 4.626275 4.626275 4.626275 4.626275 4.626275 4.626275 4.626275 4.626275 4.626275 4.626275 4.626275 4.626275 4.54902 4.54902 4.54902 4.54902 4.54902 4.54902 4.54902 4.54902 4.471765 4.471765 4.471765 4.54902 4.54902 4.54902 4.54902 4.54902 4.54902 4.54902 4.54902 4.54902 4.54902 4.54902 4.54902 4.54902 4.626275 4.626275 4.626275 4.626275 4.626275 4.626275 4.626275 4.70353 4.70353 4.70353 4.70353 4.70353 4.70353 4.70353 4.70353 4.7807846 4.7807846 4.7807846 4.7807846 4.8580394 4.8580394 4.8580394 4.8580394 4.8580394 4.8580394 4.8580394 4.8580394 4.8580394 4.8580394 4.8580394 4.9352946 4.9352946 4.9352946 4.9352946 5.0125494 5.0125494 5.0125494 5.0125494 5.0125494 5.0125494 5.0125494 5.0125494 5.0125494 5.0125494 5.0125494 5.0125494 5.0125494 5.0125494 5.0125494 4.9352946 4.9352946 4.9352946 4.9352946 4.9352946 4.9352946 4.9352946 4.9352946 4.9352946 4.9352946 4.9352946 4.9352946 4.9352946 4.9352946 4.9352946 4.9352946 4.9352946 4.9352946 4.9352946 4.9352946 4.9352946 4.9352946 4.9352946 4.9352946 4.8580394 4.8580394 4.8580394 4.8580394 4.8580394 4.8580394 4.8580394 4.8580394 4.8580394 4.8580394 4.8580394 4.7807846 4.7807846 4.7807846 4.7807846 4.7807846 4.7807846 4.7807846
4.8580394 4.8580394 4.8580394 4.8580394 4.8580394 4.8580394 4.8580394 4.8580394 4.8580394 4.8580394 4.8580394 4.8580394 4.8580394 4.8580394 4.8580394 4.8580394 4.8580394 4.8580394 4.8580394 4.8580394 4.8580394 4.8580394 4.8580394 4.7807846 4.8580394 4.8580394 4.8580394 4.8580394 4.8580394 4.8580394 4.8580394 4.8580394 4.8580394 4.9352946 4.9352946 4.9352946 4.9352946 4.9352946 4.9352946 4.9352946 4.9352946 5.0125494 5.0125494 5.0125494 5.0125494 5.0125494 5.089804 5.089804 5.089804 5.089804 5.089804 5.089804 5.089804 5.167059 5.167059 5.167059 5.167059 5.244314 5.244314 5.244314 5.321569 5.3988237 5.3988237 5.4760785 5.4760785 5.4760785 5.4760785 5.4760785 5.4760785 5.4760785 5.4760785 5.5533338 5.4760785 5.4760785 5.4760785 5.4760785 5.4760785 5.4760785 5.4760785 5.5533338 5.5533338 5.6305885 5.6305885 5.6305885 5.6305885 5.6305885 5.6305885 5.6305885 5.5533338 5.5533338 5.4760785 5.4760785 5.4760785 5.3988237 5.3988237 5.3988237 5.3988237 5.3988237 5.3988237 5.4760785 5.4760785 5.4760785 5.3988237 5.244314 5.167059 5.089804 5.0125494 5.0125494 5.0125494 5.0125494 4.9352946 4.8580394 4.8580394 4.7807846 4.7807846 4.7807846 4.70353 4.626275 4.626275 4.626275 4.54902 4.54902 4.54902 4.54902 4.54902 4.471765 4.471765 4.471765 4.3945103 4.3945103 4.3945103 4.3172555 4.3172555 4.3172555 4.3172555 4.2400002 4.2400002 4.2400002 4.2400002 4.2400002 4.2400002 4.1627455 4.1627455 4.1627455 4.1627455 4.1627455 4.1627455 4.1627455 4.1627455 4.1627455 4.0854907 4.0854907 4.0854907 4.0854907 4.1627455 4.1627455 4.1627455 4.1627455 4.1627455 4.1627455 4.1627455 4.1627455 4.1627455 4.1627455 4.1627455 4.1627455 4.1627455 4.2400002 4.2400002 4.3172555 4.3172555 4.3172555 4.3172555 4.3172555 4.471765 4.471765 4.471765 4.471765 4.471765 4.471765 4.471765 4.626275 4.626275 4.54902 4.626275 4.70353 4.70353 4.70353 4.626275 4.626275 4.626275 4.626275 4.626275 4.54902 4.54902 4.54902 4.54902 4.626275 4.626275 4.54902 4.54902 4.54902 4.54902 4.54902 4.54902 4.54902 4.54902 4.54902 4.471765 4.471765 4.471765 4.471765 4.471765 4.471765 4.54902 4.54902 4.54902 4.54902 4.54902 4.54902 4.54902 4.54902 4.54902 4.54902 4.54902 4.54902 4.54902 4.54902 4.54902 4.626275 4.626275 4.626275 4.626275 4.626275 4.626275 4.626275 4.626275 4.626275 4.626275 4.70353 4.70353 4.70353 4.7807846 4.7807846 4.7807846 4.7807846 4.7807846 4.8580394 4.8580394 4.8580394 4.8580394 4.8580394 4.8580394 4.8580394 4.8580394 4.8580394 4.8580394 4.8580394 4.9352946 4.9352946 4.9352946 4.9352946 4.9352946 4.9352946 4.9352946 4.9352946 4.9352946 4.9352946 4.9352946 4.9352946 4.9352946 4.9352946 4.9352946 4.9352946 4.9352946 4.9352946 4.9352946 4.9352946 4.9352946 4.9352946 4.9352946 4.9352946 4.9352946 4.9352946 4.9352946 4.9352946 4.9352946 4.9352946 4.9352946 4.9352946 4.9352946 4.9352946 4.9352946 4.9352946 4.8580394 4.8580394 4.8580394 4.8580394 4.8580394 4.8580394 4.8580394 4.8580394 4.8580394 4.8580394 4.8580394 4.8580394 4.8580394 4.7807846 4.7807846 4.7807846 4.7807846 4.7807846 4.7807846 4.7807846 4.7807846 4.7807846 4.7807846
4.7807846 4.7807846 4.7807846 4.7807846 4.7807846 4.7807846 4.7807846 4.7807846 4.7807846 4.8580394 4.8580394 4.8580394 4.8580394 4.8580394 4.8580394 4.8580394 4.8580394 4.8580394 4.8580394 4.7807846 4.7807846 4.7807846 4.7807846 4.7807846 4.8580394 4.8580394 4.8580394 4.8580394 4.8580394 4.8580394 4.8580394 4.8580394 4.8580394 4.8580394 4.8580394 4.9352946 4.9352946 4.9352946 4.9352946 4.9352946 4.9352946 4.9352946 5.0125494 5.0125494 5.0125494 5.0125494 5.0125494 5.0125494 5.0125494 5.089804 5.089804 5.089804 5.089804 5.089804 5.167059 5.167059 5.167059 5.167059 5.244314 5.244314 5.321569 5.3988237 5.3988237 5.3988237 5.4760785 5.4760785 5.4760785 5.4760785 5.4760785 5.4760785 5.4760785 5.4760785 5.4760785 5.4760785 5.4760785 5.4760785 5.4760785 5.4760785 5.4760785 5.5533338 5.6305885 5.6305885 5.6305885 5.6305885 5.6305885 5.6305885 5.6305885 5.5533338 5.5533338 5.4760785 5.4760785 5.4760785 5.4760785 5.3988237 5.3988237 5.3988237 5.3988237 5.3988237 5.4760785 5.4760785 5.4760785 5.4760785 5.3988237 5.3988237 5.321569 5.089804 5.089804 5.089804 5.0125494 5.0125494 4.9352946 4.9352946 4.8580394 4.7807846 4.7807846 4.7807846 4.70353 4.626275 4.626275 4.626275 4.54902 4.54902 4.54902 4.54902 4.471765 4.471765 4.471765 4.471765 4.3945103 4.3945103 4.3945103 4.3172555 4.3172555 4.3172555 4.3172555 4.2400002 4.2400002 4.2400002 4.2400002 4.2400002 4.1627455 4.1627455 4.1627455 4.1627455 4.1627455 4.1627455 4.1627455 4.1627455 4.0854907 4.0854907 4.0854907 4.0854907 4.0854907 4.0854907 4.1627455 4.1627455 4.0854907 4.1627455 4.1627455 4.1627455 4.1627455 4.1627455 4.1627455 4.1627455 4.1627455 4.1627455 4.1627455 4.1627455 4.1627455 4.2400002 4.2400002 4.2400002 4.2400002 4.3945103 4.471765 4.471765 4.471765 4.471765 4.471765 4.471765 4.471765 4.54902 4.54902 4.626275 4.70353 4.70353 4.70353 4.70353 4.626275 4.626275 4.626275 4.626275 4.54902 4.54902 4.54902 4.54902 4.54902 4.54902 4.54902 4.54902 4.54902 4.54902 4.54902 4.54902 4.54902 4.54902 4.471765 4.471765 4.471765 4.471765 4.471765 4.471765 4.471765 4.471765 4.471765 4.471765 4.471765 4.471765 4.471765 4.471765 4.471765 4.471765 4.471765 4.471765 4.471765 4.471765 4.471765 4.54902 4.54902 4.54902 4.54902 4.626275 4.626275 4.626275 4.626275 4.626275 4.626275 4.626275 4.626275 4.626275 4.626275 4.626275 4.70353 4.70353 4.70353 4.70353 4.70353 4.7807846 4.7807846 4.7807846 4.7807846 4.7807846 4.7807846 4.7807846 4.7807846 4.7807846 4.7807846 4.7807846 4.8580394 4.8580394 4.9352946 4.9352946 4.9352946 4.9352946 4.9352946 4.9352946 4.9352946 4.9352946 4.9352946 4.9352946 4.9352946 4.9352946 4.9352946 4.9352946 4.9352946 4.9352946 4.9352946 4.9352946 4.9352946 4.9352946 4.9352946 4.9352946 4.8580394 4.8580394 4.8580394 4.8580394 4.8580394 4.8580394 4.8580394 4.8580394 4.8580394 4.8580394 4.8580394 4.8580394 4.8580394 4.8580394 4.8580394 4.8580394 4.8580394 4.8580394 4.8580394 4.8580394 4.8580394 4.8580394 4.7807846 4.7807846 4.7807846 4.7807846 4.7807846 4.7807846 4.7807846 4.7807846 4.7807846 4.7807846 4.7807846 4.7807846 4.70353
4.7807846 4.7807846 4.7807846 4.7807846 4.7807846 4.7807846 4.7807846 4.7807846 4.7807846 4.7807846 4.7807846 4.7807846 4.7807846 4.7807846 4.7807846 4.7807846 4.7807846 4.7807846 4.7807846 4.7807846 4.7807846 4.7807846 4.7807846 4.7807846 4.7807846 4.8580394 4.8580394 4.8580394 4.8580394 4.8580394 4.8580394 4.8580394 4.8580394 4.8580394 4.8580394 4.8580394 4.8580394 4.8580394 4.9352946 4.9352946 4.9352946 4.9352946 4.9352946 5.0125494 5.0125494 5.0125494 5.0125494 5.0125494 5.0125494 5.089804 5.089804 5.089804 5.089804 5.089804 5.167059 5.167059 5.167059 5.167059 5.244314 5.244314 5.321569 5.321569 5.321569 5.3988237 5.3988237 5.3988237 5.4760785 5.4760785 5.4760785 5.4760785 5.4760785 5.4760785 5.4760785 5.4760785 5.4760785 5.4760785 5.4760785 5.4760785 5.4760785 5.5533338 5.6305885 5.6305885 5.6305885 5.6305885 5.6305885 5.6305885 5.5533338 5.5533338 5.5533338 5.4760785 5.4760785 5.4760785 5.4760785 5.3988237 5.3988237 5.3988237 5.3988237 5.3988237 5.4760785 5.4760785 5.4760785 5.3988237 5.3988237 5.321569 5.321569 5.244314 5.089804 5.0125494 5.0125494 5.0125494 4.9352946 4.9352946 4.8580394 4.7807846 4.7807846 4.70353 4.70353 4.626275 4.626275 4.626275 4.54902 4.54902 4.54902 4.471765 4.471765 4.471765 4.471765 4.471765 4.3945103 4.3945103 4.3945103 4.3172555 4.3172555 4.3172555 4.3172555 4.2400002 4.2400002 4.2400002 4.2400002 4.1627455 4.1627455 4.1627455 4.1627455 4.1627455 4.0854907 4.0854907 4.0854907 4.0854907 4.0854907 4.0854907 4.0854907 4.0854907 4.0854907 4.0854907 4.0854907 4.0854907 4.0854907 4.0854907 4.0854907 4.0854907 4.0854907 4.0854907 4.0854907 4.0854907 4.0854907 4.0854907 4.1627455 4.1627455 4.1627455 4.2400002 4.2400002 4.2400002 4.2400002 4.3945103 4.3945103 4.3945103 4.3945103 4.471765 4.471765 4.471765 4.471765 4.54902 4.54902 4.626275 4.70353 4.70353 4.626275 4.626275 4.626275 4.626275 4.626275 4.54902 4.54902 4.54902 4.54902 4.471765 4.54902 4.54902 4.54902 4.54902 4.54902 4.54902 4.54902 4.54902 4.471765 4.471765 4.471765 4.471765 4.471765 4.471765 4.471765 4.471765 4.471765 4.471765 4.471765 4.471765 4.471765 4.471765 4.471765 4.471765 4.471765 4.471765 4.471765 4.471765 4.471765 4.471765 4.471765 4.471765 4.471765 4.54902 4.54902 4.54902 4.54902 4.54902 4.54902 4.626275 4.626275 4.626275 4.626275 4.626275 4.626275 4.626275 4.626275 4.626275 4.70353 4.70353 4.70353 4.70353 4.70353 4.7807846 4.7807846 4.7807846 4.7807846 4.7807846 4.7807846 4.7807846 4.7807846 4.7807846 4.7807846 4.7807846 4.8580394 4.8580394 4.8580394 4.8580394 4.8580394 4.8580394 4.8580394 4.8580394 4.9352946 4.9352946 4.8580394 4.8580394 4.8580394 4.8580394 4.8580394 4.8580394 4.8580394 4.8580394 4.8580394 4.8580394 4.8580394 4.8580394 4.8580394 4.8580394 4.8580394 4.8580394 4.8580394 4.8580394 4.8580394 4.8580394 4.8580394 4.8580394 4.8580394 4.8580394 4.8580394 4.8580394 4.8580394 4.8580394 4.8580394 4.7807846 4.7807846 4.7807846 4.7807846 4.7807846 4.7807846 4.7807846 4.7807846 4.7807846 4.7807846 4.7807846 4.7807846 4.7807846 4.7807846 4.70353 4.70353 4.70353 4.70353
4.7807846 4.7807846 4.7807846 4.7807846 4.7807846 4.7807846 4.7807846 4.7807846 4.7807846 4.7807846 4.7807846 4.7807846 4.7807846 4.7807846 4.7807846 4.7807846 4.7807846 4.7807846 4.7807846 4.7807846 4.7807846 4.7807846 4.7807846 4.7807846 4.7807846 4.7807846 4.7807846 4.7807846 4.7807846 4.7807846 4.7807846 4.7807846 4.7807846 4.8580394 4.8580394 4.8580394 4.8580394 4.8580394 4.8580394 4.8580394 4.9352946 4.9352946 4.9352946 4.9352946 4.9352946 5.0125494 5.0125494 5.0125494 5.0125494 5.0125494 5.089804 5.089804 5.089804 5.089804 5.089804 5.167059 5.167059 5.167059 5.244314 5.244314 5.321569 5.321569 5.321569 5.3988237 5.3988237 5.3988237 5.3988237 5.3988237 5.4760785 5.4760785 5.4760785 5.4760785 5.4760785 5.4760785 5.4760785 5.4760785 5.4760785 5.4760785 5.5533338 5.5533338 5.6305885 5.6305885 5.6305885 5.6305885 5.6305885 5.5533338 5.5533338 5.5533338 5.4760785 5.4760785 5.4760785 5.4760785 5.4760785 5.3988237 5.3988237 5.3988237 5.3988237 5.4760785 5.4760785 5.4760785 5.4760785 5.3988237 5.321569 5.321569 5.244314 5.244314 5.167059 5.089804 5.0125494 5.0125494 4.9352946 4.9352946 4.8580394 4.7807846 4.7807846 4.70353 4.70353 4.70353 4.626275 4.626275 4.54902 4.54902 4.471765 4.471765 4.471765 4.471765 4.471765 4.471765 4.3945103 4.3945103 4.3945103 4.3172555 4.3172555 4.3172555 4.2400002 4.2400002 4.2400002 4.2400002 4.1627455 4.1627455 4.1627455 4.1627455 4.1627455 4.0854907 4.0854907 4.0854907 4.0854907 4.0854907 4.0854907 4.0854907 4.0854907 4.0854907 4.0854907 4.0854907 4.0854907 4.0854907 4.0854907 4.0854907 4.0854907 4.0854907 4.0854907 4.0854907 4.0854907 4.0854907 4.0854907 4.0854907 4.0854907 4.1627455 4.1627455 4.2400002 4.2400002 4.2400002 4.2400002 4.3945103 4.3945103 4.3945103 4.3945103 4.3945103 4.3945103 4.3945103 4.3945103 4.54902 4.54902 4.54902 4.70353 4.626275 4.626275 4.626275 4.626275 4.626275 4.626275 4.54902 4.54902 4.54902 4.54902 4.471765 4.471765 4.471765 4.471765 4.54902 4.471765 4.471765 4.471765 4.471765 4.471765 4.471765 4.471765 4.471765 4.471765 4.471765 4.471765 4.471765 4.471765 4.471765 4.471765 4.471765 4.471765 4.471765 4.471765 4.471765 4.471765 4.471765 4.471765 4.471765 4.471765 4.471765 4.471765 4.471765 4.471765 4.471765 4.471765 4.471765 4.54902 4.54902 4.54902 4.54902 4.54902 4.54902 4.54902 4.54902 4.54902 4.626275 4.626275 4.626275 4.626275 4.626275 4.626275 4.626275 4.70353 4.70353 4.70353 4.7807846 4.7807846 4.7807846 4.7807846 4.7807846 4.7807846 4.7807846 4.7807846 4.7807846 4.7807846 4.8580394 4.8580394 4.8580394 4.8580394 4.8580394 4.8580394 4.8580394 4.8580394 4.8580394 4.8580394 4.8580394 4.8580394 4.8580394 4.8580394 4.8580394 4.8580394 4.8580394 4.8580394 4.8580394 4.8580394 4.8580394 4.8580394 4.8580394 4.8580394 4.8580394 4.8580394 4.8580394 4.8580394 4.8580394 4.7807846 4.7807846 4.7807846 4.7807846 4.7807846 4.7807846 4.7807846 4.7807846 4.7807846 4.7807846 4.7807846 4.7807846 4.7807846 4.7807846 4.7807846 4.7807846 4.7807846 4.7807846 4.7807846 4.70353 4.70353 4.70353 4.70353 4.70353 4.70353 4.70353 4.70353
4.70353 4.70353 4.70353 4.70353 4.70353 4.70353 4.7807846 4.7807846 4.7807846 4.7807846 4.7807846 4.7807846 4.7807846 4.7807846 4.7807846 4.7807846 4.7807846 4.7807846 4.7807846 4.7807846 4.7807846 4.70353 4.70353 4.7807846 4.7807846 4.7807846 4.7807846 4.7807846 4.7807846 4.7807846 4.7807846 4.7807846 4.7807846 4.7807846 4.7807846 4.8580394 4.8580394 4.8580394 4.8580394 4.8580394 4.8580394 4.9352946 4.9352946 4.9352946 4.9352946 4.9352946 4.9352946 5.0125494 5.0125494 5.0125494 5.089804 5.089804 5.089804 5.089804 5.089804 5.089804 5.167059 5.167059 5.167059 5.244314 5.244314 5.321569 5.321569 5.321569 5.3988237 5.3988237 5.3988237 5.3988237 5.3988237 5.4760785 5.4760785 5.4760785 5.4760785 5.4760785 5.4760785 5.4760785 5.4760785 5.4760785 5.5533338 5.5533338 5.5533338 5.5533338 5.5533338 5.5533338 5.5533338 5.5533338 5.5533338 5.5533338 5.5533338 5.4760785 5.4760785 5.4760785 5.4760785 5.4760785 5.4760785 5.4760785 5.4760785 5.4760785 5.4760785 5.4760785 5.3988237 5.3988237 5.321569 5.321569 5.244314 5.244314 5.167059 5.089804 5.0125494 4.9352946 4.9352946 4.8580394 4.8580394 4.7807846 4.7807846 4.70353 4.70353 4.70353 4.626275 4.626275 4.54902 4.54902 4.54902 4.471765 4.471765 4.471765 4.471765 4.3945103 4.3945103 4.3945103 4.3172555 4.3172555 4.3172555 4.2400002 4.2400002 4.2400002 4.2400002 4.1627455 4.1627455 4.1627455 4.1627455 4.1627455 4.0854907 4.0854907 4.0854907 4.0854907 4.0854907 4.0854907 4.0854907 4.0854907 4.0854907 4.0854907 4.0854907 4.0854907 4.0854907 4.0854907 4.0854907 4.0854907 4.0854907 4.0854907 4.0854907 4.0854907 4.0854907 4.0854907 4.0854907 4.0854907 4.0854907 4.0854907 4.1627455 4.2400002 4.2400002 4.2400002 4.2400002 4.3172555 4.3945103 4.3945103 4.3945103 4.3945103 4.3945103 4.3945103 4.3945103 4.54902 4.54902 4.54902 4.626275 4.626275 4.626275 4.626275 4.626275 4.626275 4.54902 4.54902 4.54902 4.54902 4.471765 4.471765 4.471765 4.471765 4.471765 4.471765 4.471765 4.471765 4.471765 4.471765 4.471765 4.471765 4.471765 4.471765 4.471765 4.471765 4.471765 4.3945103 4.3945103 4.3945103 4.3945103 4.471765 4.471765 4.471765 4.471765 4.471765 4.471765 4.471765 4.3945103 4.3945103 4.471765 4.471765 4.471765 4.471765 4.471765 4.471765 4.471765 4.471765 4.471765 4.471765 4.54902 4.54902 4.54902 4.54902 4.54902 4.54902 4.54902 4.54902 4.54902 4.54902 4.54902 4.626275 4.626275 4.626275 4.626275 4.626275 4.626275 4.70353 4.70353 4.70353 4.70353 4.70353 4.70353 4.70353 4.70353 4.70353 4.70353 4.70353 4.7807846 4.7807846 4.8580394 4.8580394 4.8580394 4.8580394 4.8580394 4.8580394 4.8580394 4.8580394 4.8580394 4.8580394 4.8580394 4.8580394 4.8580394 4.8580394 4.8580394 4.8580394 4.8580394 4.8580394 4.7807846 4.7807846 4.7807846 4.7807846 4.7807846 4.7807846 4.7807846 4.7807846 4.7807846 4.7807846 4.7807846 4.7807846 4.7807846 4.7807846 4.7807846 4.7807846 4.7807846 4.7807846 4.7807846 4.7807846 4.7807846 4.7807846 4.7807846 4.7807846 4.70353 4.70353 4.70353 4.70353 4.70353 4.70353 4.70353 4.70353 4.70353 4.70353 4.70353
4.70353 4.70353 4.70353 4.70353 4.70353 4.70353 4.70353 4.70353 4.7807846 4.70353 4.70353 4.70353 4.70353 4.70353 4.70353 4.70353 4.70353 4.70353 4.7807846 4.70353 4.70353 4.70353 4.70353 4.70353 4.70353 4.70353 4.7807846 4.7807846 4.7807846 4.70353 4.7807846 4.7807846 4.7807846 4.7807846 4.7807846 4.7807846 4.7807846 4.8580394 4.8580394 4.8580394 4.8580394 4.8580394 4.8580394 4.9352946 4.9352946 4.9352946 4.9352946 4.9352946 5.0125494 5.0125494 5.0125494 5.0125494 5.089804 5.089804 5.089804 5.089804 5.089804 5.167059 5.167059 5.244314 5.244314 5.244314 5.321569 5.321569 5.3988237 5.3988237 5.3988237 5.3988237 5.3988237 5.4760785 5.4760785 5.4760785 5.4760785 5.4760785 5.4760785 5.4760785 5.4760785 5.4760785 5.5533338 5.5533338 5.5533338 5.5533338 5.5533338 5.5533338 5.5533338 5.5533338 5.5533338 5.5533338 5.4760785 5.4760785 5.6305885 5.6305885 5.5533338 5.5533338 5.5533338 5.5533338 5.4760785 5.4760785 5.4760785 5.4760785 5.3988237 5.321569 5.321569 5.244314 5.244314 5.167059 5.167059 5.089804 5.0125494 5.0125494 4.9352946 4.8580394 4.8580394 4.7807846 4.7807846 4.70353 4.70353 4.70353 4.626275 4.626275 4.54902 4.54902 4.54902 4.471765 4.471765 4.471765 4.471765 4.3945103 4.3945103 4.3945103 4.3172555 4.3172555 4.3172555 4.2400002 4.2400002 4.2400002 4.1627455 4.1627455 4.1627455 4.1627455 4.1627455 4.0854907 4.0854907 4.0854907 4.0854907 4.0854907 4.0854907 4.0854907 4.0854907 4.0854907 4.0854907 4.0854907 4.0854907 4.0854907 4.0854907 4.0854907 4.0854907 4.0854907 4.0854907 4.0854907 4.0854907 4.0854907 4.0854907 4.0854907 4.0854907 4.0854907 4.0854907 4.0854907 4.1627455 4.1627455 4.1627455 4.2400002 4.2400002 4.3172555 4.3172555 4.3172555 4.3945103 4.3945103 4.3945103 4.3945103 4.471765 4.471765 4.54902 4.54902 4.626275 4.626275 4.626275 4.626275 4.626275 4.626275 4.54902 4.54902 4.54902 4.54902 4.471765 4.471765 4.471765 4.471765 4.471765 4.471765 4.471765 4.471765 4.471765 4.471765 4.471765 4.471765 4.471765 4.471765 4.471765 4.3945103 4.3945103 4.3945103 4.3945103 4.3945103 4.3945103 4.3945103 4.3945103 4.471765 4.471765 4.3945103 4.3945103 4.3945103 4.3945103 4.3945103 4.3945103 4.3945103 4.3945103 4.3945103 4.3945103 4.3945103 4.471765 4.471765 4.471765 4.471765 4.471765 4.471765 4.471765 4.54902 4.54902 4.54902 4.54902 4.54902 4.54902 4.54902 4.54902 4.54902 4.626275 4.626275 4.626275 4.626275 4.626275 4.626275 4.626275 4.70353 4.70353 4.70353 4.70353 4.70353 4.70353 4.70353 4.70353 4.70353 4.70353 4.7807846 4.7807846 4.7807846 4.7807846 4.7807846 4.7807846 4.7807846 4.7807846 4.7807846 4.7807846 4.7807846 4.7807846 4.7807846 4.7807846 4.7807846 4.7807846 4.7807846 4.7807846 4.7807846 4.7807846 4.7807846 4.7807846 4.7807846 4.7807846 4.7807846 4.7807846 4.7807846 4.7807846 4.7807846 4.7807846 4.7807846 4.7807846 4.7807846 4.7807846 4.7807846 4.7807846 4.70353 4.70353 4.70353 4.70353 4.70353 4.70353 4.70353 4.70353 4.70353 4.70353 4.70353 4.70353 4.70353 4.70353 4.70353 4.626275 4.626275 4.626275
4.70353 4.70353 4.70353 4.70353 4.70353 4.70353 4.70353 4.70353 4.70353 4.70353 4.70353 4.70353 4.70353 4.70353 4.70353 4.70353 4.70353 4.70353 4.70353 4.70353 4.70353 4.70353 4.70353 4.70353 4.70353 4.70353 4.70353 4.70353 4.70353 4.70353 4.70353 4.70353 4.7807846 4.7807846 4.7807846 4.7807846 4.7807846 4.7807846 4.7807846 4.8580394 4.8580394 4.8580394 4.8580394 4.8580394 4.9352946 4.9352946 4.9352946 4.9352946 4.9352946 5.0125494 5.0125494 5.0125494 5.0125494 5.089804 5.089804 5.089804 5.089804 5.167059 5.167059 5.167059 5.244314 5.244314 5.321569 5.321569 5.321569 5.321569 5.3988237 5.3988237 5.4760785 5.4760785 5.4760785 5.4760785 5.4760785 5.4760785 5.4760785 5.4760785 5.4760785 5.4760785 5.5533338 5.5533338 5.5533338 5.5533338 5.5533338 5.5533338 5.4760785 5.4760785 5.4760785 5.4760785 5.5533338 5.6305885 5.6305885 5.6305885 5.5533338 5.5533338 5.5533338 5.5533338 5.4760785 5.4760785 5.4760785 5.3988237 5.3988237 5.321569 5.321569 5.244314 5.244314 5.167059 5.167059 5.089804 5.0125494 5.0125494 4.9352946 4.8580394 4.8580394 4.7807846 4.7807846 4.70353 4.70353 4.70353 4.626275 4.626275 4.626275 4.54902 4.54902 4.471765 4.471765 4.471765 4.3945103 4.3945103 4.3945103 4.3172555 4.3172555 4.3172555 4.2400002 4.2400002 4.2400002 4.2400002 4.1627455 4.1627455 4.1627455 4.0854907 4.0854907 4.0854907 4.0854907 4.0854907 4.0854907 4.0854907 4.0854907 4.0854907 4.0854907 4.0854907 4.0854907 4.0854907 4.0854907 4.0854907 4.0854907 4.0854907 4.0854907 4.0082355 4.0082355 4.0082355 4.0082355 4.0082355 4.0082355 4.0082355 4.0082355 4.0082355 4.0082355 4.0854907 4.0854907 4.1627455 4.1627455 4.1627455 4.2400002 4.2400002 4.3172555 4.3172555 4.3172555 4.3172555 4.3172555 4.3945103 4.471765 4.471765 4.471765 4.471765 4.626275 4.626275 4.626275 4.626275 4.626275 4.54902 4.54902 4.54902 4.54902 4.54902 4.471765 4.471765 4.471765 4.471765 4.471765 4.471765 4.471765 4.471765 4.471765 4.471765 4.471765 4.471765 4.471765 4.471765 4.3945103 4.3945103 4.3945103 4.3945103 4.3945103 4.3945103 4.3945103 4.3945103 4.3945103 4.3945103 4.3945103 4.3945103 4.3945103 4.3945103 4.3945103 4.3945103 4.3945103 4.3945103 4.3945103 4.3945103 4.3945103 4.3945103 4.3945103 4.471765 4.471765 4.471765 4.3945103 4.471765 4.471765 4.471765 4.471765 4.471765 4.471765 4.471765 4.471765 4.471765 4.471765 4.54902 4.54902 4.54902 4.54902 4.54902 4.54902 4.54902 4.626275 4.626275 4.626275 4.626275 4.626275 4.626275 4.626275 4.626275 4.626275 4.626275 4.626275 4.626275 4.70353 4.7807846 4.7807846 4.7807846 4.7807846 4.7807846 4.7807846 4.7807846 4.7807846 4.7807846 4.7807846 4.7807846 4.7807846 4.7807846 4.7807846 4.7807846 4.7807846 4.7807846 4.7807846 4.7807846 4.7807846 4.7807846 4.7807846 4.7807846 4.7807846 4.70353 4.70353 4.70353 4.70353 4.70353 4.70353 4.70353 4.70353 4.70353 4.70353 4.70353 4.70353 4.70353 4.70353 4.70353 4.70353 4.70353 4.70353 4.70353 4.70353 4.70353 4.626275 4.626275 4.626275 4.626275 4.626275 4.626275 4.626275
4.626275 4.626275 4.626275 4.626275 4.70353 4.70353 4.70353 4.70353 4.70353 4.70353 4.70353 4.70353 4.70353 4.70353 4.70353 4.70353 4.70353 4.70353 4.70353 4.70353 4.626275 4.626275 4.626275 4.70353 4.70353 4.70353 4.70353 4.70353 4.70353 4.70353 4.70353 4.70353 4.70353 4.70353 4.70353 4.7807846 4.7807846 4.7807846 4.7807846 4.7807846 4.8580394 4.8580394 4.8580394 4.8580394 4.8580394 4.9352946 4.9352946 4.9352946 4.9352946 5.0125494 5.0125494 5.0125494 5.0125494 5.0125494 5.089804 5.089804 5.089804 5.089804 5.167059 5.167059 5.167059 5.244314 5.244314 5.321569 5.321569 5.321569 5.3988237 5.4760785 5.4760785 5.4760785 5.4760785 5.4760785 5.4760785 5.4760785 5.5533338 5.4760785 5.4760785 5.4760785 5.4760785 5.4760785 5.4760785 5.4760785 5.4760785 5.4760785 5.4760785 5.4760785 5.4760785 5.5533338 5.6305885 5.6305885 5.5533338 5.5533338 5.5533338 5.5533338 5.5533338 5.5533338 5.4760785 5.4760785 5.4760785 5.4760785 5.3988237 5.321569 5.321569 5.244314 5.167059 5.167059 5.089804 5.089804 5.0125494 5.0125494 4.9352946 4.8580394 4.8580394 4.8580394 4.7807846 4.7807846 4.70353 4.70353 4.626275 4.626275 4.626275 4.54902 4.471765 4.471765 4.471765 4.471765 4.3945103 4.3945103 4.3172555 4.3172555 4.3172555 4.2400002 4.2400002 4.2400002 4.2400002 4.1627455 4.1627455 4.1627455 4.1627455 4.0854907 4.0854907 4.0854907 4.0854907 4.0854907 4.0082355 4.0082355 4.0082355 4.0082355 4.0082355 4.0082355 4.0854907 4.0854907 4.0854907 4.0854907 4.0082355 4.0082355 4.0082355 4.0082355 4.0082355 4.0082355 4.0082355 4.0082355 4.0082355 4.0082355 4.0082355 4.0082355 4.0082355 4.0854907 4.0854907 4.1627455 4.1627455 4.1627455 4.1627455 4.2400002 4.3172555 4.3172555 4.3172555 4.3172555 4.3172555 4.3172555 4.471765 4.471765 4.471765 4.471765 4.626275 4.626275 4.626275 4.54902 4.54902 4.54902 4.54902 4.54902 4.54902 4.54902 4.471765 4.471765 4.471765 4.471765 4.471765 4.471765 4.471765 4.471765 4.471765 4.471765 4.471765 4.471765 4.471765 4.3945103 4.3945103 4.3945103 4.3945103 4.3945103 4.3945103 4.3945103 4.3945103 4.3945103 4.3945103 4.3945103 4.3945103 4.3945103 4.3945103 4.3945103 4.3945103 4.3945103 4.3945103 4.3945103 4.3945103 4.3945103 4.3945103 4.3945103 4.3945103 4.3945103 4.3945103 4.3945103 4.3945103 4.3945103 4.3945103 4.471765 4.471765 4.471765 4.471765 4.471765 4.471765 4.471765 4.471765 4.471765 4.471765 4.471765 4.54902 4.54902 4.54902 4.54902 4.54902 4.54902 4.626275 4.626275 4.626275 4.626275 4.626275 4.626275 4.626275 4.626275 4.626275 4.626275 4.626275 4.70353 4.70353 4.70353 4.70353 4.70353 4.70353 4.70353 4.7807846 4.7807846 4.7807846 4.7807846 4.7807846 4.7807846 4.7807846 4.7807846 4.7807846 4.7807846 4.7807846 4.7807846 4.70353 4.70353 4.70353 4.70353 4.70353 4.70353 4.70353 4.70353 4.70353 4.70353 4.70353 4.70353 4.70353 4.70353 4.70353 4.70353 4.70353 4.70353 4.70353 4.626275 4.626275 4.626275 4.626275 4.626275 4.626275 4.626275 4.626275 4.626275 4.626275 4.626275 4.626275 4.626275 4.626275
4.626275 4.626275 4.626275 4.626275 4.626275 4.626275 4.626275 4.626275 4.626275 4.626275 4.626275 4.626275 4.626275 4.626275 4.626275 4.626275 4.626275 4.70353 4.626275 4.626275 4.626275 4.626275 4.626275 4.626275 4.626275 4.70353 4.626275 4.626275 4.626275 4.626275 4.70353 4.70353 4.70353 4.70353 4.70353 4.70353 4.7807846 4.7807846 4.7807846 4.7807846 4.7807846 4.7807846 4.8580394 4.8580394 4.8580394 4.8580394 4.8580394 4.9352946 4.9352946 4.9352946 5.0125494 5.0125494 5.0125494 5.0125494 5.0125494 5.0125494 5.089804 5.089804 5.167059 5.167059 5.167059 5.244314 5.244314 5.321569 5.321569 5.3988237 5.4760785 5.4760785 5.4760785 5.4760785 5.4760785 5.4760785 5.4760785 5.4760785 5.4760785 5.4760785 5.4760785 5.4760785 5.4760785 5.4760785 5.4760785 5.4760785 5.4760785 5.4760785 5.4760785 5.4760785 5.4760785 5.5533338 5.5533338 5.5533338 5.5533338 5.5533338 5.5533338 5.5533338 5.5533338 5.4760785 5.4760785 5.4760785 5.4760785 5.4760785 5.3988237 5.321569 5.244314 5.244314 5.167059 5.167059 5.089804 5.0125494 5.0125494 4.9352946 4.9352946 4.8580394 4.8580394 4.8580394 4.7807846 4.7807846 4.70353 4.70353 4.626275 4.626275 4.626275 4.54902 4.54902 4.471765 4.471765 4.3945103 4.3945103 4.3945103 4.3172555 4.3172555 4.3172555 4.2400002 4.2400002 4.2400002 4.1627455 4.1627455 4.1627455 4.1627455 4.0854907 4.0854907 4.0854907 4.0854907 4.0854907 4.0082355 4.0082355 4.0082355 4.0082355 4.0082355 4.0082355 4.0082355 4.0082355 4.0854907 4.0082355 4.0082355 4.0082355 4.0082355 4.0082355 4.0082355 4.0082355 4.0082355 4.0082355 4.0082355 4.0082355 4.0082355 4.0082355 4.0082355 4.0082355 4.0854907 4.0854907 4.1627455 4.1627455 4.1627455 4.1627455 4.1627455 4.2400002 4.3172555 4.3172555 4.3172555 4.3172555 4.3172555 4.471765 4.471765 4.471765 4.471765 4.54902 4.54902 4.54902 4.54902 4.54902 4.54902 4.54902 4.54902 4.54902 4.54902 4.471765 4.471765 4.471765 4.471765 4.471765 4.471765 4.471765 4.471765 4.471765 4.471765 4.471765 4.471765 4.3945103 4.3945103 4.3945103 4.3945103 4.3945103 4.3945103 4.3945103 4.3945103 4.3945103 4.3172555 4.3172555 4.3172555 4.3172555 4.3945103 4.3945103 4.3945103 4.3172555 4.3172555 4.3172555 4.3172555 4.3172555 4.3172555 4.3172555 4.3945103 4.3945103 4.3945103 4.3945103 4.3945103 4.3945103 4.3945103 4.3945103 4.3945103 4.471765 4.471765 4.471765 4.471765 4.471765 4.471765 4.471765 4.471765 4.471765 4.471765 4.471765 4.471765 4.54902 4.54902 4.54902 4.54902 4.54902 4.54902 4.54902 4.626275 4.626275 4.626275 4.626275 4.626275 4.626275 4.626275 4.626275 4.626275 4.626275 4.70353 4.70353 4.70353 4.70353 4.70353 4.70353 4.70353 4.70353 4.70353 4.70353 4.70353 4.70353 4.70353 4.70353 4.70353 4.70353 4.70353 4.70353 4.70353 4.70353 4.70353 4.70353 4.70353 4.70353 4.70353 4.70353 4.626275 4.626275 4.626275 4.626275 4.626275 4.626275 4.626275 4.626275 4.626275 4.626275 4.626275 4.626275 4.626275 4.626275 4.626275 4.626275 4.626275 4.626275 4.626275 4.626275 4.626275 4.626275 4.626275 4.626275
4.626275 4.626275 4.626275 4.626275 4.626275 4.626275 4.626275 4.626275 4.626275 4.626275 4.626275 4.626275 4.626275 4.626275 4.626275 4.626275 4.626275 4.626275 4.626275 4.626275 4.626275 4.626275 4.626275 4.626275 4.626275 4.626275 4.626275 4.626275 4.626275 4.626275 4.626275 4.626275 4.70353 4.70353 4.70353 4.70353 4.70353 4.7807846 4.7807846 4.7807846 4.7807846 4.7807846 4.7807846 4.8580394 4.8580394 4.8580394 4.8580394 4.9352946 4.9352946 4.9352946 4.9352946 4.9352946 5.0125494 5.0125494 5.0125494 5.0125494 5.089804 5.089804 5.089804 5.167059 5.167059 5.244314 5.244314 5.321569 5.3988237 5.3988237 5.4760785 5.4760785 5.4760785 5.4760785 5.4760785 5.4760785 5.4760785 5.4760785 5.4760785 5.4760785 5.4760785 5.4760785 5.4760785 5.4760785 5.4760785 5.4760785 5.4760785 5.4760785 5.4760785 5.4760785 5.5533338 5.5533338 5.5533338 5.5533338 5.5533338 5.5533338 5.5533338 5.5533338 5.4760785 5.4760785 5.4760785 5.4760785 5.4760785 5.4760785 5.3988237 5.321569 5.244314 5.244314 5.167059 5.167059 5.089804 5.0125494 5.0125494 4.9352946 4.9352946 4.8580394 4.8580394 4.7807846 4.7807846 4.7807846 4.70353 4.70353 4.626275 4.626275 4.626275 4.54902 4.54902 4.471765 4.471765 4.3945103 4.3945103 4.3945103 4.3172555 4.3172555 4.2400002 4.2400002 4.2400002 4.2400002 4.1627455 4.1627455 4.1627455 4.0854907 4.0854907 4.0854907 4.0854907 4.0854907 4.0082355 4.0082355 4.0082355 4.0082355 4.0082355 4.0082355 4.0082355 4.0082355 4.0082355 4.0082355 4.0082355 4.0082355 4.0082355 4.0082355 4.0082355 4.0082355 4.0082355 3.9309804 3.9309804 4.0082355 4.0082355 4.0082355 4.0082355 4.0082355 4.0082355 4.0854907 4.0854907 4.0854907 4.0854907 4.0854907 4.1627455 4.1627455 4.2400002 4.2400002 4.2400002 4.3172555 4.3172555 4.3172555 4.3945103 4.471765 4.471765 4.471765 4.54902 4.54902 4.54902 4.54902 4.54902 4.54902 4.54902 4.54902 4.54902 4.471765 4.471765 4.471765 4.471765 4.471765 4.471765 4.471765 4.471765 4.471765 4.471765 4.3945103 4.3945103 4.3945103 4.3945103 4.3945103 4.3945103 4.3945103 4.3945103 4.3945103 4.3172555 4.3172555 4.3172555 4.3172555 4.3172555 4.3172555 4.3172555 4.3172555 4.3172555 4.3172555 4.3172555 4.3172555 4.3172555 4.3172555 4.3172555 4.3172555 4.3172555 4.3172555 4.3172555 4.3172555 4.3945103 4.3945103 4.3945103 4.3945103 4.3172555 4.3172555 4.3945103 4.3945103 4.3945103 4.471765 4.471765 4.471765 4.3945103 4.3945103 4.3945103 4.471765 4.471765 4.471765 4.471765 4.471765 4.471765 4.471765 4.471765 4.471765 4.54902 4.54902 4.54902 4.54902 4.54902 4.54902 4.54902 4.54902 4.54902 4.54902 4.54902 4.626275 4.626275 4.626275 4.70353 4.70353 4.70353 4.70353 4.70353 4.70353 4.70353 4.70353 4.70353 4.70353 4.70353 4.70353 4.70353 4.70353 4.70353 4.70353 4.70353 4.70353 4.70353 4.70353 4.626275 4.626275 4.626275 4.626275 4.626275 4.626275 4.626275 4.626275 4.626275 4.626275 4.626275 4.626275 4.626275 4.626275 4.626275 4.626275 4.626275 4.626275 4.626275 4.626275 4.626275 4.626275 4.626275 4.54902 4.54902 4.54902 4.54902
4.626275 4.626275 4.626275 4.626275 4.626275 4.626275 4.626275 4.626275 4.626275 4.626275 4.626275 4.626275 4.626275 4.626275 4.626275 4.626275 4.626275 4.626275 4.626275 4.626275 4.626275 4.626275 4.626275 4.626275 4.626275 4.626275 4.626275 4.626275 4.626275 4.626275 4.626275 4.626275 4.626275 4.626275 4.626275 4.70353 4.70353 4.70353 4.70353 4.7807846 4.7807846 4.7807846 4.7807846 4.7807846 4.8580394 4.8580394 4.8580394 4.8580394 4.9352946 4.9352946 4.9352946 4.9352946 4.9352946 5.0125494 5.0125494 5.0125494 5.0125494 5.089804 5.089804 5.167059 5.167059 5.244314 5.244314 5.321569 5.3988237 5.3988237 5.3988237 5.4760785 5.4760785 5.4760785 5.4760785 5.4760785 5.4760785 5.4760785 5.4760785 5.4760785 5.4760785 5.4760785 5.4760785 5.4760785 5.4760785 5.4760785 5.4760785 5.4760785 5.4760785 5.4760785 5.5533338 5.5533338 5.5533338 5.5533338 5.4760785 5.4760785 5.4760785 5.4760785 5.4760785 5.4760785 5.4760785 5.4760785 5.4760785 5.3988237 5.3988237 5.321569 5.321569 5.244314 5.167059 5.089804 5.089804 5.0125494 5.0125494 4.9352946 4.9352946 4.8580394 4.8580394 4.7807846 4.7807846 4.7807846 4.70353 4.70353 4.626275 4.626275 4.54902 4.54902 4.54902 4.471765 4.471765 4.3945103 4.3945103 4.3172555 4.3172555 4.3172555 4.2400002 4.2400002 4.2400002 4.1627455 4.1627455 4.1627455 4.1627455 4.0854907 4.0854907 4.0854907 4.0082355 4.0082355 4.0082355 4.0082355 4.0082355 4.0082355 4.0082355 4.0082355 4.0082355 4.0082355 4.0082355 4.0082355 4.0082355 4.0082355 4.0082355 4.0082355 3.9309804 3.9309804 3.9309804 3.9309804 3.9309804 3.9309804 3.9309804 3.9309804 3.9309804 3.9309804 4.0082355 4.0082355 4.0854907 4.0854907 4.0854907 4.0854907 4.0854907 4.1627455 4.1627455 4.2400002 4.3172555 4.3172555 4.3172555 4.3945103 4.3945103 4.471765 4.3945103 4.471765 4.471765 4.54902 4.54902 4.54902 4.54902 4.54902 4.54902 4.54902 4.54902 4.471765 4.471765 4.471765 4.471765 4.471765 4.471765 4.471765 4.471765 4.3945103 4.3945103 4.3945103 4.3945103 4.3945103 4.3945103 4.3945103 4.3945103 4.3945103 4.3945103 4.3172555 4.3172555 4.3172555 4.3172555 4.3172555 4.3172555 4.3172555 4.3172555 4.3172555 4.3172555 4.3172555 4.3172555 4.3172555 4.3172555 4.3172555 4.3172555 4.3172555 4.3172555 4.3172555 4.3172555 4.3172555 4.3172555 4.3945103 4.3172555 4.3172555 4.3172555 4.3172555 4.3172555 4.3945103 4.3945103 4.3945103 4.3945103 4.3945103 4.3945103 4.3945103 4.3945103 4.3945103 4.3945103 4.3945103 4.3945103 4.471765 4.471765 4.471765 4.471765 4.471765 4.471765 4.471765 4.54902 4.54902 4.54902 4.54902 4.54902 4.54902 4.54902 4.54902 4.54902 4.54902 4.54902 4.626275 4.626275 4.626275 4.626275 4.626275 4.626275 4.626275 4.626275 4.626275 4.626275 4.626275 4.626275 4.626275 4.626275 4.626275 4.626275 4.626275 4.626275 4.626275 4.626275 4.626275 4.626275 4.626275 4.626275 4.626275 4.626275 4.626275 4.626275 4.626275 4.626275 4.626275 4.626275 4.626275 4.626275 4.626275 4.626275 4.626275 4.626275 4.626275 4.54902 4.54902 4.54902 4.54902 4.54902 4.54902 4.54902 4.54902 4.54902
4.54902 4.54902 4.54902 4.54902 4.54902 4.626275 4.626275 4.54902 4.626275 4.626275 4.626275 4.626275 4.626275 4.626275 4.626275 4.626275 4.626275 4.626275 4.54902 4.54902 4.54902 4.54902 4.626275 4.626275 4.626275 4.626275 4.626275 4.626275 4.626275 4.626275 4.626275 4.626275 4.626275 4.626275 4.626275 4.626275 4.70353 4.70353 4.70353 4.70353 4.7807846 4.7807846 4.7807846 4.7807846 4.7807846 4.8580394 4.8580394 4.8580394 4.8580394 4.9352946 4.9352946 4.9352946 4.9352946 4.9352946 5.0125494 5.0125494 5.0125494 5.0125494 5.089804 5.089804 5.167059 5.167059 5.244314 5.321569 5.3988237 5.3988237 5.3988237 5.3988237 5.4760785 5.3988237 5.3988237 5.4760785 5.4760785 5.4760785 5.3988237 5.3988237 5.3988237 5.3988237 5.3988237 5.3988237 5.3988237 5.3988237 5.4760785 5.4760785 5.4760785 5.4760785 5.5533338 5.5533338 5.4760785 5.4760785 5.4760785 5.4760785 5.4760785 5.4760785 5.4760785 5.4760785 5.4760785 5.4760785 5.4760785 5.3988237 5.3988237 5.321569 5.244314 5.244314 5.167059 5.089804 5.089804 5.0125494 5.0125494 4.9352946 4.9352946 4.8580394 4.8580394 4.7807846 4.7807846 4.7807846 4.70353 4.626275 4.626275 4.626275 4.54902 4.54902 4.471765 4.471765 4.471765 4.3945103 4.3945103 4.3172555 4.3172555 4.3172555 4.2400002 4.2400002 4.1627455 4.1627455 4.1627455 4.1627455 4.0854907 4.0854907 4.0854907 4.0854907 4.0082355 4.0082355 4.0082355 4.0082355 4.0082355 4.0082355 4.0082355 4.0082355 4.0082355 4.0082355 4.0082355 4.0082355 4.0082355 4.0082355 3.9309804 3.9309804 3.9309804 3.9309804 3.9309804 3.9309804 3.9309804 3.9309804 3.9309804 3.9309804 3.9309804 3.9309804 4.0082355 4.0082355 4.0854907 4.0854907 4.0854907 4.0854907 4.0854907 4.0854907 4.1627455 4.3172555 4.3172555 4.3172555 4.3172555 4.3945103 4.3945103 4.3945103 4.3945103 4.3945103 4.471765 4.54902 4.54902 4.54902 4.54902 4.54902 4.54902 4.471765 4.471765 4.471765 4.471765 4.471765 4.471765 4.471765 4.471765 4.471765 4.471765 4.3945103 4.3945103 4.3945103 4.3945103 4.3945103 4.3945103 4.3945103 4.3945103 4.3945103 4.3172555 4.3172555 4.3172555 4.3172555 4.3172555 4.3172555 4.3172555 4.3172555 4.2400002 4.2400002 4.2400002 4.3172555 4.3172555 4.3172555 4.3172555 4.2400002 4.2400002 4.2400002 4.2400002 4.2400002 4.3172555 4.3172555 4.3172555 4.3172555 4.3172555 4.3172555 4.3172555 4.3172555 4.3172555 4.3172555 4.3945103 4.3945103 4.3945103 4.3945103 4.3945103 4.3945103 4.3945103 4.3945103 4.3945103 4.3945103 4.3945103 4.3945103 4.3945103 4.471765 4.471765 4.471765 4.471765 4.471765 4.471765 4.471765 4.471765 4.471765 4.471765 4.471765 4.471765 4.471765 4.471765 4.54902 4.54902 4.54902 4.626275 4.626275 4.626275 4.626275 4.626275 4.626275 4.626275 4.626275 4.626275 4.626275 4.626275 4.626275 4.626275 4.626275 4.626275 4.626275 4.626275 4.626275 4.626275 4.626275 4.626275 4.626275 4.626275 4.626275 4.626275 4.626275 4.626275 4.54902 4.54902 4.54902 4.54902 4.54902 4.54902 4.54902 4.54902 4.54902 4.54902 4.54902 4.54902 4.54902 4.54902 4.54902 4.54902 4.54902 4.54902 4.54902 4.54902
4.54902 4.54902 4.54902 4.54902 4.54902 4.54902 4.54902 4.54902 4.54902 4.54902 4.54902 4.54902 4.54902 4.54902 4.54902 4.54902 4.54902 4.54902 4.54902 4.54902 4.54902 4.54902 4.54902 4.54902 4.626275 4.626275 4.54902 4.54902 4.54902 4.54902 4.626275 4.626275 4.626275 4.626275 4.626275 4.626275 4.626275 4.70353 4.70353 4.70353 4.70353 4.7807846 4.7807846 4.7807846 4.7807846 4.7807846 4.8580394 4.8580394 4.8580394 4.8580394 4.8580394 4.9352946 4.9352946 4.9352946 4.9352946 5.0125494 5.0125494 5.0125494 5.089804 5.089804 5.167059 5.167059 5.244314 5.321569 5.321569 5.321569 5.3988237 5.3988237 5.3988237 5.3988237 5.3988237 5.3988237 5.3988237 5.3988237 5.3988237 5.3988237 5.3988237 5.3988237 5.3988237 5.3988237 5.3988237 5.3988237 5.4760785 5.4760785 5.4760785 5.4760785 5.4760785 5.4760785 5.4760785 5.4760785 5.4760785 5.4760785 5.4760785 5.4760785 5.4760785 5.4760785 5.4760785 5.4760785 5.3988237 5.3988237 5.3988237 5.321569 5.244314 5.167059 5.167059 5.089804 5.089804 5.0125494 5.0125494 4.9352946 4.9352946 4.8580394 4.8580394 4.7807846 4.7807846 4.7807846 4.70353 4.626275 4.626275 4.54902 4.54902 4.54902 4.471765 4.471765 4.471765 4.3945103 4.3945103 4.3172555 4.3172555 4.2400002 4.2400002 4.2400002 4.1627455 4.1627455 4.1627455 4.0854907 4.0854907 4.0854907 4.0854907 4.0082355 4.0082355 4.0082355 4.0082355 4.0082355 4.0082355 4.0082355 4.0082355 4.0082355 4.0082355 4.0082355 4.0082355 4.0082355 4.0082355 3.9309804 3.9309804 3.9309804 3.9309804 3.9309804 3.9309804 3.9309804 3.9309804 3.9309804 3.9309804 3.9309804 3.9309804 3.9309804 4.0082355 4.0082355 4.0082355 4.0082355 4.0854907 4.0854907 4.0854907 4.0854907 4.0854907 4.3172555 4.3172555 4.3172555 4.3172555 4.3945103 4.3945103 4.3945103 4.3945103 4.3945103 4.471765 4.54902 4.54902 4.471765 4.471765 4.471765 4.471765 4.471765 4.471765 4.471765 4.471765 4.471765 4.471765 4.471765 4.471765 4.471765 4.3945103 4.3945103 4.3945103 4.3945103 4.3945103 4.3945103 4.3945103 4.3945103 4.3945103 4.3945103 4.3172555 4.3172555 4.3172555 4.3172555 4.3172555 4.3172555 4.2400002 4.2400002 4.2400002 4.2400002 4.2400002 4.2400002 4.2400002 4.2400002 4.2400002 4.2400002 4.2400002 4.2400002 4.2400002 4.2400002 4.2400002 4.2400002 4.2400002 4.3172555 4.3172555 4.3172555 4.3172555 4.3172555 4.3172555 4.2400002 4.2400002 4.3172555 4.3945103 4.3945103 4.3945103 4.3945103 4.3172555 4.3172555 4.3172555 4.3172555 4.3945103 4.3945103 4.3945103 4.3945103 4.3945103 4.3945103 4.3945103 4.3945103 4.3945103 4.471765 4.471765 4.471765 4.471765 4.471765 4.471765 4.471765 4.471765 4.471765 4.471765 4.471765 4.471765 4.54902 4.54902 4.626275 4.626275 4.626275 4.626275 4.626275 4.626275 4.626275 4.626275 4.626275 4.626275 4.626275 4.626275 4.626275 4.626275 4.626275 4.626275 4.626275 4.626275 4.626275 4.626275 4.626275 4.626275 4.54902 4.54902 4.54902 4.54902 4.54902 4.54902 4.54902 4.54902 4.54902 4.54902 4.54902 4.54902 4.54902 4.54902 4.54902 4.54902 4.54902 4.54902 4.54902 4.54902 4.54902 4.471765
4.54902 4.54902 4.54902 4.54902 4.54902 4.54902 4.54902 4.54902 4.54902 4.54902 4.54902 4.54902 4.54902 4.54902 4.54902 4.54902 4.54902 4.54902 4.54902 4.54902 4.54902 4.54902 4.54902 4.54902 4.54902 4.54902 4.54902 4.54902 4.54902 4.54902 4.54902 4.54902 4.54902 4.626275 4.626275 4.626275 4.626275 4.626275 4.626275 4.70353 4.70353 4.70353 4.7807846 4.7807846 4.7807846 4.7807846 4.7807846 4.8580394 4.8580394 4.8580394 4.8580394 4.8580394 4.9352946 4.9352946 4.9352946 5.0125494 5.0125494 5.0125494 5.089804 5.167059 5.167059 5.167059 5.244314 5.321569 5.321569 5.321569 5.321569 5.3988237 5.3988237 5.3988237 5.3988237 5.3988237 5.3988237 5.3988237 5.3988237 5.3988237 5.3988237 5.3988237 5.3988237 5.3988237 5.3988237 5.3988237 5.4760785 5.4760785 5.4760785 5.4760785 5.4760785 5.4760785 5.4760785 5.4760785 5.4760785 5.4760785 5.4760785 5.4760785 5.4760785 5.4760785 5.4760785 5.3988237 5.3988237 5.3988237 5.321569 5.321569 5.244314 5.167059 5.167059 5.089804 5.089804 5.0125494 5.0125494 4.9352946 4.8580394 4.8580394 4.8580394 4.7807846 4.7807846 4.70353 4.70353 4.626275 4.626275 4.54902 4.54902 4.471765 4.471765 4.471765 4.3945103 4.3945103 4.3945103 4.3172555 4.3172555 4.2400002 4.2400002 4.2400002 4.1627455 4.1627455 4.1627455 4.0854907 4.0854907 4.0854907 4.0854907 4.0854907 4.0082355 4.0082355 4.0082355 4.0082355 4.0082355 4.0082355 4.0082355 4.0082355 4.0082355 4.0082355 4.0082355 3.9309804 3.9309804 3.9309804 3.9309804 3.9309804 3.9309804 3.9309804 3.9309804 3.9309804 3.9309804 3.9309804 3.9309804 3.9309804 3.9309804 3.9309804 4.0082355 4.0082355 4.0082355 4.0082355 4.0082355 4.0082355 4.0082355 4.0082355 4.0854907 4.3172555 4.3172555 4.3172555 4.3172555 4.3945103 4.3945103 4.3945103 4.3945103 4.3945103 4.3945103 4.54902 4.471765 4.471765 4.471765 4.471765 4.471765 4.471765 4.471765 4.471765 4.471765 4.471765 4.471765 4.471765 4.471765 4.3945103 4.3945103 4.3945103 4.3945103 4.3945103 4.3945103 4.3945103 4.3945103 4.3945103 4.3945103 4.3172555 4.3172555 4.3172555 4.3172555 4.3172555 4.3172555 4.2400002 4.2400002 4.2400002 4.2400002 4.2400002 4.2400002 4.2400002 4.2400002 4.2400002 4.2400002 4.2400002 4.2400002 4.2400002 4.2400002 4.2400002 4.2400002 4.2400002 4.2400002 4.2400002 4.3172555 4.3172555 4.3172555 4.2400002 4.2400002 4.2400002 4.2400002 4.2400002 4.3172555 4.3172555 4.3172555 4.3172555 4.3172555 4.3172555 4.3172555 4.3172555 4.3172555 4.3172555 4.3172555 4.3172555 4.3945103 4.3945103 4.3945103 4.3945103 4.3945103 4.3945103 4.3945103 4.471765 4.471765 4.471765 4.471765 4.471765 4.471765 4.471765 4.471765 4.471765 4.471765 4.471765 4.54902 4.54902 4.54902 4.54902 4.54902 4.54902 4.54902 4.54902 4.54902 4.54902 4.54902 4.54902 4.54902 4.54902 4.54902 4.54902 4.54902 4.54902 4.54902 4.54902 4.54902 4.54902 4.54902 4.54902 4.54902 4.54902 4.54902 4.54902 4.54902 4.54902 4.54902 4.54902 4.54902 4.54902 4.54902 4.54902 4.54902 4.54902 4.54902 4.471765 4.471765 4.471765 4.471765 4.471765 4.471765
4.471765 4.471765 4.471765 4.471765 4.54902 4.54902 4.54902 4.54902 4.54902 4.54902 4.54902 4.54902 4.54902 4.54902 4.54902 4.54902 4.54902 4.471765 4.471765 4.471765 4.54902 4.54902 4.54902 4.54902 4.54902 4.54902 4.54902 4.54902 4.54902 4.54902 4.54902 4.54902 4.54902 4.54902 4.626275 4.626275 4.626275 4.626275 4.626275 4.70353 4.70353 4.70353 4.70353 4.7807846 4.7807846 4.7807846 4.7807846 4.7807846 4.7807846 4.8580394 4.8580394 4.8580394 4.8580394 4.9352946 4.9352946 4.9352946 5.0125494 5.0125494 5.089804 5.167059 5.167059 5.167059 5.244314 5.244314 5.321569 5.321569 5.321569 5.321569 5.321569 5.321569 5.321569 5.321569 5.321569 5.321569 5.3988237 5.3988237 5.3988237 5.3988237 5.3988237 5.3988237 5.3988237 5.3988237 5.4760785 5.4760785 5.4760785 5.4760785 5.4760785 5.4760785 5.4760785 5.4760785 5.4760785 5.4760785 5.4760785 5.4760785 5.4760785 5.4760785 5.3988237 5.3988237 5.3988237 5.321569 5.321569 5.321569 5.244314 5.167059 5.167059 5.089804 5.0125494 5.0125494 5.0125494 4.9352946 4.8580394 4.8580394 4.8580394 4.7807846 4.7807846 4.70353 4.70353 4.626275 4.626275 4.54902 4.54902 4.471765 4.471765 4.471765 4.3945103 4.3945103 4.3172555 4.3172555 4.3172555 4.2400002 4.2400002 4.2400002 4.1627455 4.1627455 4.1627455 4.0854907 4.0854907 4.0854907 4.0854907 4.0854907 4.0082355 4.0082355 4.0082355 4.0082355 4.0082355 4.0082355 4.0082355 4.0082355 4.0082355 4.0082355 3.9309804 3.9309804 3.9309804 3.9309804 3.9309804 3.9309804 3.9309804 3.9309804 3.9309804 3.9309804 3.9309804 3.8537257 3.9309804 3.9309804 3.9309804 3.9309804 4.0082355 4.0082355 4.0082355 4.0082355 4.0082355 4.0082355 4.0082355 4.0082355 4.0082355 4.2400002 4.2400002 4.3172555 4.3172555 4.3945103 4.3945103 4.3945103 4.3945103 4.3945103 4.3945103 4.471765 4.471765 4.471765 4.471765 4.471765 4.471765 4.471765 4.471765 4.471765 4.471765 4.471765 4.471765 4.471765 4.3945103 4.3945103 4.3945103 4.3945103 4.3945103 4.3945103 4.3172555 4.3172555 4.3172555 4.3172555 4.3945103 4.3172555 4.3172555 4.3172555 4.3172555 4.3172555 4.2400002 4.2400002 4.2400002 4.2400002 4.2400002 4.2400002 4.2400002 4.2400002 4.1627455 4.2400002 4.2400002 4.2400002 4.2400002 4.2400002 4.2400002 4.2400002 4.2400002 4.2400002 4.2400002 4.2400002 4.2400002 4.2400002 4.2400002 4.2400002 4.2400002 4.2400002 4.2400002 4.2400002 4.3172555 4.3172555 4.3172555 4.3172555 4.3172555 4.3172555 4.3172555 4.3172555 4.3172555 4.3172555 4.3172555 4.3172555 4.3172555 4.3172555 4.3945103 4.3945103 4.3945103 4.3945103 4.3945103 4.3945103 4.3945103 4.3945103 4.3945103 4.3945103 4.471765 4.471765 4.471765 4.471765 4.471765 4.471765 4.471765 4.471765 4.471765 4.54902 4.54902 4.54902 4.54902 4.54902 4.54902 4.54902 4.54902 4.54902 4.54902 4.54902 4.54902 4.54902 4.54902 4.54902 4.54902 4.54902 4.54902 4.54902 4.54902 4.54902 4.54902 4.54902 4.54902 4.54902 4.471765 4.471765 4.471765 4.471765 4.471765 4.471765 4.471765 4.471765 4.471765 4.471765 4.471765 4.471765 4.471765 4.471765 4.471765 4.471765 4.471765
4.471765 4.471765 4.471765 4.471765 4.471765 4.471765 4.471765 4.471765 4.471765 4.471765 4.471765 4.471765 4.471765 4.471765 4.471765 4.471765 4.471765 4.471765 4.471765 4.471765 4.471765 4.471765 4.54902 4.54902 4.54902 4.54902 4.471765 4.471765 4.471765 4.54902 4.54902 4.54902 4.54902 4.54902 4.54902 4.626275 4.626275 4.626275 4.626275 4.626275 4.70353 4.70353 4.70353 4.70353 4.7807846 4.7807846 4.7807846 4.7807846 4.7807846 4.7807846 4.8580394 4.8580394 4.8580394 4.9352946 4.9352946 4.9352946 4.9352946 5.0125494 5.089804 5.167059 5.167059 5.167059 5.244314 5.244314 5.244314 5.321569 5.321569 5.321569 5.321569 5.321569 5.321569 5.321569 5.321569 5.321569 5.321569 5.321569 5.321569 5.321569 5.321569 5.321569 5.3988237 5.4760785 5.4760785 5.4760785 5.4760785 5.4760785 5.4760785 5.4760785 5.4760785 5.4760785 5.4760785 5.4760785 5.4760785 5.4760785 5.4760785 5.3988237 5.3988237 5.3988237 5.321569 5.321569 5.321569 5.244314 5.244314 5.167059 5.167059 5.089804 5.0125494 5.0125494 4.9352946 4.9352946 4.8580394 4.8580394 4.8580394 4.7807846 4.7807846 4.70353 4.70353 4.626275 4.626275 4.54902 4.54902 4.471765 4.471765 4.471765 4.3945103 4.3945103 4.3172555 4.3172555 4.3172555 4.2400002 4.2400002 4.2400002 4.1627455 4.1627455 4.1627455 4.0854907 4.0854907 4.0854907 4.0854907 4.0854907 4.0854907 4.0082355 4.0082355 4.0082355 4.0082355 4.0082355 4.0082355 4.0082355 4.0082355 3.9309804 3.9309804 3.9309804 3.9309804 3.9309804 3.9309804 3.9309804 3.9309804 3.9309804 3.8537257 3.8537257 3.8537257 3.8537257 3.8537257 3.8537257 3.9309804 4.0082355 4.0082355 3.9309804 3.9309804 4.0082355 4.0082355 4.0082355 4.0082355 4.0082355 4.0082355 4.0082355 4.2400002 4.3172555 4.3172555 4.3945103 4.3945103 4.3945103 4.3172555 4.3172555 4.3172555 4.471765 4.471765 4.471765 4.471765 4.471765 4.471765 4.471765 4.471765 4.471765 4.471765 4.3945103 4.3945103 4.3945103 4.3945103 4.3945103 4.3945103 4.3945103 4.3945103 4.3172555 4.3172555 4.3172555 4.3172555 4.3172555 4.3172555 4.3172555 4.3172555 4.3172555 4.3172555 4.3172555 4.2400002 4.2400002 4.2400002 4.2400002 4.2400002 4.2400002 4.1627455 4.1627455 4.1627455 4.1627455 4.1627455 4.2400002 4.1627455 4.1627455 4.1627455 4.1627455 4.1627455 4.1627455 4.1627455 4.2400002 4.2400002 4.2400002 4.2400002 4.2400002 4.2400002 4.2400002 4.2400002 4.2400002 4.2400002 4.2400002 4.3172555 4.3172555 4.3172555 4.3172555 4.3172555 4.3172555 4.3172555 4.3172555 4.3172555 4.3172555 4.3172555 4.3172555 4.3172555 4.3172555 4.3172555 4.3172555 4.3172555 4.3172555 4.3945103 4.3945103 4.3945103 4.3945103 4.3945103 4.3945103 4.3945103 4.3945103 4.3945103 4.3945103 4.3945103 4.3945103 4.471765 4.471765 4.471765 4.471765 4.471765 4.471765 4.471765 4.471765 4.54902 4.54902 4.54902 4.54902 4.54902 4.54902 4.54902 4.54902 4.54902 4.54902 4.54902 4.54902 4.54902 4.54902 4.54902 4.471765 4.471765 4.471765 4.471765 4.471765 4.471765 4.471765 4.471765 4.471765 4.471765 4.471765 4.471765 4.471765 4.471765 4.471765 4.471765 4.471765 4.471765 4.471765 4.471765
4.471765 4.471765 4.471765 4.471765 4.471765 4.471765 4.471765 4.471765 4.471765 4.471765 4.471765 4.471765 4.471765 4.471765 4.471765 4.471765 4.471765 4.471765 4.471765 4.471765 4.471765 4.471765 4.471765 4.471765 4.471765 4.471765 4.471765 4.471765 4.471765 4.471765 4.471765 4.471765 4.54902 4.54902 4.54902 4.54902 4.54902 4.626275 4.626275 4.626275 4.626275 4.70353 4.70353 4.70353 4.70353 4.7807846 4.7807846 4.7807846 4.7807846 4.7807846 4.7807846 4.8580394 4.8580394 4.8580394 4.9352946 4.9352946 5.0125494 5.089804 5.089804 5.089804 5.167059 5.167059 5.244314 5.244314 5.244314 5.244314 5.244314 5.321569 5.321569 5.321569 5.321569 5.321569 5.321569 5.321569 5.321569 5.321569 5.321569 5.321569 5.321569 5.3988237 5.3988237 5.3988237 5.4760785 5.4760785 5.4760785 5.4760785 5.4760785 5.4760785 5.4760785 5.4760785 5.4760785 5.4760785 5.4760785 5.4760785 5.3988237 5.3988237 5.3988237 5.3988237 5.321569 5.321569 5.321569 5.244314 5.244314 5.167059 5.089804 5.089804 5.0125494 5.0125494 4.9352946 4.9352946 4.8580394 4.8580394 4.8580394 4.7807846 4.7807846 4.70353 4.70353 4.626275 4.626275 4.54902 4.54902 4.471765 4.471765 4.3945103 4.3945103 4.3945103 4.3172555 4.3172555 4.2400002 4.2400002 4.2400002 4.1627455 4.1627455 4.1627455 4.0854907 4.0854907 4.0854907 4.0854907 4.0854907 4.0854907 4.0082355 4.0082355 4.0082355 4.0082355 4.0082355 4.0082355 4.0082355 4.0082355 3.9309804 3.9309804 3.9309804 3.9309804 3.9309804 3.9309804 3.9309804 3.9309804 3.8537257 3.8537257 3.8537257 3.8537257 3.8537257 3.8537257 3.8537257 3.8537257 3.8537257 3.9309804 3.9309804 3.9309804 3.9309804 3.9309804 3.9309804 3.9309804 3.9309804 3.9309804 3.9309804 4.0082355 4.2400002 4.3172555 4.3172555 4.3172555 4.3172555 4.3172555 4.3172555 4.3172555 4.3172555 4.471765 4.471765 4.471765 4.471765 4.471765 4.3945103 4.3945103 4.3945103 4.3945103 4.3945103 4.3945103 4.3945103 4.3945103 4.3945103 4.3945103 4.3945103 4.3945103 4.3172555 4.3172555 4.3172555 4.3172555 4.3172555 4.3172555 4.3172555 4.3172555 4.3172555 4.3172555 4.3172555 4.2400002 4.2400002 4.2400002 4.2400002 4.2400002 4.2400002 4.2400002 4.1627455 4.1627455 4.1627455 4.1627455 4.1627455 4.1627455 4.1627455 4.1627455 4.1627455 4.1627455 4.1627455 4.1627455 4.1627455 4.1627455 4.1627455 4.1627455 4.2400002 4.2400002 4.2400002 4.2400002 4.2400002 4.1627455 4.1627455 4.2400002 4.2400002 4.2400002 4.2400002 4.2400002 4.2400002 4.2400002 4.2400002 4.2400002 4.2400002 4.2400002 4.2400002 4.2400002 4.2400002 4.2400002 4.3172555 4.3172555 4.3172555 4.3172555 4.3172555 4.3172555 4.3172555 4.3172555 4.3172555 4.3945103 4.3945103 4.3945103 4.3945103 4.3945103 4.3945103 4.3945103 4.3945103 4.3945103 4.471765 4.471765 4.471765 4.471765 4.471765 4.471765 4.471765 4.471765 4.471765 4.471765 4.471765 4.471765 4.471765 4.471765 4.471765 4.471765 4.471765 4.471765 4.471765 4.471765 4.471765 4.471765 4.471765 4.471765 4.471765 4.471765 4.471765 4.471765 4.471765 4.471765 4.471765 4.471765 4.471765 4.471765 4.471765 4.471765 4.471765 4.471765 4.471765 4.471765 4.471765
4.471765 4.471765 4.471765 4.471765 4.471765 4.471765 4.471765 4.471765 4.471765 4.471765 4.471765 4.471765 4.471765 4.471765 4.471765 4.471765 4.471765 4.471765 4.471765 4.471765 4.471765 4.471765 4.471765 4.471765 4.471765 4.471765 4.471765 4.471765 4.471765 4.471765 4.471765 4.471765 4.471765 4.54902 4.54902 4.54902 4.54902 4.626275 4.626275 4.626275 4.626275 4.70353 4.70353 4.70353 4.70353 4.70353 4.70353 4.7807846 4.7807846 4.7807846 4.7807846 4.8580394 4.8580394 4.8580394 4.9352946 5.0125494 5.0125494 5.089804 5.089804 5.089804 5.167059 5.167059 5.167059 5.167059 5.244314 5.244314 5.244314 5.244314 5.244314 5.244314 5.244314 5.244314 5.244314 5.321569 5.321569 5.321569 5.321569 5.321569 5.321569 5.3988237 5.3988237 5.3988237 5.3988237 5.3988237 5.3988237 5.3988237 5.4760785 5.4760785 5.4760785 5.4760785 5.4760785 5.4760785 5.4760785 5.3988237 5.3988237 5.3988237 5.3988237 5.321569 5.321569 5.321569 5.244314 5.244314 5.167059 5.167059 5.089804 5.089804 5.0125494 5.0125494 4.9352946 4.9352946 4.8580394 4.8580394 4.8580394 4.7807846 4.7807846 4.70353 4.70353 4.626275 4.626275 4.54902 4.471765 4.471765 4.471765 4.3945103 4.3945103 4.3172555 4.3172555 4.3172555 4.2400002 4.2400002 4.2400002 4.1627455 4.1627455 4.1627455 4.0854907 4.0854907 4.0854907 4.0854907 4.0854907 4.0082355 4.0082355 4.0082355 4.0082355 4.0082355 4.0082355 4.0082355 4.0082355 3.9309804 3.9309804 3.9309804 3.9309804 3.9309804 3.9309804 3.9309804 3.8537257 3.8537257 3.8537257 3.8537257 3.8537257 3.8537257 3.8537257 3.8537257 3.8537257 3.8537257 3.9309804 3.9309804 3.9309804 3.9309804 3.9309804 3.9309804 3.9309804 3.9309804 3.9309804 3.9309804 3.9309804 4.0082355 4.2400002 4.3172555 4.3172555 4.3172555 4.3172555 4.3172555 4.3172555 4.3172555 4.3172555 4.3172555 4.471765 4.471765 4.471765 4.3945103 4.3945103 4.3945103 4.3945103 4.3945103 4.3945103 4.3945103 4.3945103 4.3945103 4.3945103 4.3945103 4.3945103 4.3172555 4.3172555 4.3172555 4.3172555 4.3172555 4.3172555 4.3172555 4.3172555 4.3172555 4.3172555 4.3172555 4.3172555 4.2400002 4.2400002 4.2400002 4.2400002 4.2400002 4.2400002 4.1627455 4.1627455 4.1627455 4.1627455 4.1627455 4.1627455 4.1627455 4.1627455 4.1627455 4.1627455 4.1627455 4.1627455 4.1627455 4.1627455 4.1627455 4.1627455 4.1627455 4.1627455 4.1627455 4.2400002 4.1627455 4.1627455 4.1627455 4.1627455 4.1627455 4.2400002 4.2400002 4.2400002 4.2400002 4.2400002 4.2400002 4.2400002 4.2400002 4.2400002 4.2400002 4.2400002 4.2400002 4.2400002 4.2400002 4.2400002 4.2400002 4.3172555 4.3172555 4.3172555 4.3172555 4.3172555 4.3172555 4.3172555 4.3172555 4.3172555 4.3945103 4.3945103 4.3945103 4.3945103 4.3945103 4.3945103 4.3945103 4.3945103 4.3945103 4.471765 4.471765 4.471765 4.471765 4.471765 4.471765 4.471765 4.471765 4.471765 4.471765 4.471765 4.471765 4.471765 4.471765 4.471765 4.471765 4.471765 4.471765 4.471765 4.471765 4.471765 4.471765 4.471765 4.471765 4.471765 4.471765 4.471765 4.471765 4.3945103 4.3945103 4.3945103 4.3945103 4.3945103 4.3945103 4.3945103 4.3945103 4.3945103 4.3945103 4.3945103
