5.089804 5.089804 5.167059 5.167059 5.167059 5.167059 5.167059 5.167059 5.167059 5.244314 5.244314 5.244314 5.244314 5.244314 5.244314 5.321569 5.321569 5.321569 5.321569 5.321569 5.321569 5.3988237 5.3988237 5.3988237 5.3988237 5.3988237 5.4760785 5.4760785 5.4760785 5.4760785 5.4760785 5.4760785 5.4760785 5.5533338 5.5533338 5.5533338 5.5533338 5.6305885 5.6305885 5.6305885 5.6305885 5.6305885 5.6305885 5.7078433 5.7078433 5.7078433 5.7078433 5.785098 5.785098 5.785098 5.785098 5.785098 5.785098 5.8623533 5.8623533 5.8623533 5.8623533 5.939608 5.939608 5.939608 5.939608 5.939608 5.939608 6.016863 6.016863 6.016863 6.094118 6.094118 6.171373 6.171373 6.171373 6.2486277 6.2486277 6.2486277 6.3258824 6.3258824 6.4031377 6.4031377 6.4803925 6.4803925 6.557647 6.557647 6.557647 6.634902 6.634902 6.7121572 6.789412 6.789412 6.789412 6.866667 6.866667 6.866667 6.9439216 6.9439216 6.9439216 7.021177 7.021177 7.021177 7.0984316 7.0984316 7.0984316 7.1756864 7.1756864 7.1756864 7.252941 7.252941 7.252941 7.3301964 7.3301964 7.407451 7.407451 7.407451 7.484706 7.484706 7.484706 7.561961 7.561961 7.639216 7.639216 7.716471 7.716471 7.716471 7.7937264 7.7937264 7.870981 7.870981 7.870981 7.948236 7.948236 8.025491 8.025491 8.102746 8.102746 8.18 8.18 8.257256 8.257256 8.257256 8.334511 8.411765 8.411765 8.411765 8.48902 8.48902 8.48902 8.411765 8.411765 8.411765 8.411765 8.334511 8.334511 8.334511 8.257256 8.257256 8.257256 8.257256 8.18 8.18 8.18 8.18 8.18 8.18 8.18 8.18 8.18 8.18 8.257256 8.257256 8.257256 8.334511 8.334511 8.411765 8.411765 8.411765 8.411765 8.411765 8.411765 8.411765 8.411765 8.411765 8.411765 8.411765 8.411765 8.411765 8.411765 8.411765 8.411765 8.411765 8.411765 8.411765 8.411765 8.411765 8.411765 8.411765 8.48902 8.48902 9.725099 9.725099 9.647843 9.647843 9.647843 9.647843 9.647843 9.570589 9.570589 9.570589 9.570589 9.570589 9.493334 9.493334 9.493334 9.493334 9.4160795 9.4160795 9.4160795 9.4160795 9.338824 9.338824 9.338824 9.338824 9.338824 9.261569 9.261569 9.261569 9.261569 9.261569 9.261569 9.261569 9.184315 9.184315 9.184315 9.184315 9.184315 9.184315 9.1070595 9.1070595 9.1070595 9.1070595 9.1070595 9.029804 9.029804 9.029804 9.029804 9.029804 8.95255 8.95255 8.95255 8.875295 8.875295 8.875295 8.875295 8.875295 8.798039 8.798039 8.798039 8.798039 8.720785 8.720785 8.720785 8.720785 8.64353 8.64353 8.64353 8.64353 8.64353 8.566276 8.566276 8.566276 8.566276 8.566276 8.48902 8.48902 8.48902 8.48902 8.411765 8.411765 8.411765 8.411765 8.411765 8.411765 8.334511 8.334511 8.334511 8.334511 8.257256 8.257256 8.257256 8.257256 8.257256 8.257256 8.18 8.18 8.18 8.18 8.18 8.18 8.18 8.18 8.102746 8.102746 8.102746 8.102746 8.102746 8.102746 8.102746 8.025491 8.025491 8.025491 8.025491 8.025491 8.025491 8.025491 8.025491 8.025491 7.948236 7.948236 7.948236 7.948236 7.948236 7.948236 7.948236 7.948236 7.870981 7.870981 7.870981 7.870981 7.870981 7.870981 7.870981 7.870981 7.7937264 7.7937264 7.7937264 7.7937264 7.7937264 7.7937264 7.7937264 7.7937264 7.7937264 7.716471 7.716471 7.716471 7.716471 7.716471 7.716471 7.716471 7.639216 7.639216 7.639216 7.639216 7.639216 7.639216 7.639216 7.639216 7.561961 7.561961 7.561961 7.561961 7.561961 7.561961 7.561961 7.561961 7.484706 7.484706
5.089804 5.089804 5.089804 5.167059 5.167059 5.167059 5.167059 5.167059 5.167059 5.167059 5.244314 5.244314 5.244314 5.244314 5.244314 5.244314 5.321569 5.321569 5.321569 5.321569 5.321569 5.321569 5.3988237 5.3988237 5.3988237 5.3988237 5.3988237 5.4760785 5.4760785 5.4760785 5.4760785 5.4760785 5.4760785 5.4760785 5.5533338 5.5533338 5.5533338 5.5533338 5.5533338 5.6305885 5.6305885 5.6305885 5.6305885 5.6305885 5.6305885 5.7078433 5.7078433 5.7078433 5.7078433 5.785098 5.785098 5.785098 5.785098 5.785098 5.8623533 5.8623533 5.8623533 5.8623533 5.8623533 5.939608 5.939608 5.939608 5.939608 6.016863 6.016863 6.016863 6.094118 6.094118 6.094118 6.171373 6.171373 6.2486277 6.2486277 6.2486277 6.3258824 6.3258824 6.4031377 6.4031377 6.4031377 6.4803925 6.4803925 6.557647 6.557647 6.557647 6.634902 6.7121572 6.789412 6.789412 6.789412 6.789412 6.866667 6.866667 6.866667 6.9439216 6.9439216 6.9439216 7.021177 7.021177 7.021177 7.0984316 7.0984316 7.0984316 7.1756864 7.1756864 7.1756864 7.252941 7.252941 7.3301964 7.3301964 7.3301964 7.407451 7.407451 7.407451 7.484706 7.484706 7.561961 7.561961 7.561961 7.639216 7.639216 7.716471 7.716471 7.716471 7.7937264 7.7937264 7.870981 7.870981 7.948236 7.948236 7.948236 8.025491 8.025491 8.102746 8.102746 8.18 8.18 8.257256 8.257256 8.257256 8.334511 8.411765 8.411765 8.48902 8.48902 8.411765 8.411765 8.411765 8.334511 8.334511 8.334511 8.257256 8.257256 8.257256 8.18 8.18 8.18 8.18 8.18 8.102746 8.102746 8.102746 8.102746 8.102746 8.102746 8.18 8.18 8.18 8.18 8.257256 8.257256 8.334511 8.334511 8.411765 8.411765 8.411765 8.411765 8.411765 8.411765 8.411765 8.411765 8.411765 8.411765 8.411765 8.411765 8.411765 8.334511 8.334511 8.334511 8.334511 8.334511 8.334511 8.411765 8.411765 8.411765 8.411765 8.411765 8.48902 9.647843 9.647843 9.647843 9.570589 9.570589 9.570589 9.570589 9.570589 9.570589 9.493334 9.493334 9.493334 9.493334 9.4160795 9.4160795 9.4160795 9.4160795 9.338824 9.338824 9.338824 9.338824 9.261569 9.261569 9.261569 9.261569 9.261569 9.261569 9.184315 9.184315 9.184315 9.184315 9.1070595 9.1070595 9.1070595 9.1070595 9.029804 9.029804 9.029804 9.029804 9.029804 9.029804 9.029804 9.029804 9.029804 8.95255 8.95255 8.95255 8.95255 8.875295 8.875295 8.875295 8.875295 8.875295 8.798039 8.798039 8.798039 8.798039 8.720785 8.720785 8.720785 8.720785 8.64353 8.64353 8.64353 8.64353 8.64353 8.566276 8.566276 8.566276 8.566276 8.48902 8.48902 8.48902 8.48902 8.48902 8.411765 8.411765 8.411765 8.411765 8.411765 8.334511 8.334511 8.334511 8.334511 8.334511 8.257256 8.257256 8.257256 8.257256 8.257256 8.257256 8.18 8.18 8.18 8.18 8.18 8.18 8.102746 8.102746 8.102746 8.102746 8.102746 8.102746 8.102746 8.025491 8.025491 8.025491 8.025491 8.025491 8.025491 8.025491 8.025491 8.025491 8.025491 7.948236 7.948236 7.948236 7.948236 7.948236 7.948236 7.948236 7.948236 7.870981 7.870981 7.870981 7.870981 7.870981 7.870981 7.870981 7.870981 7.7937264 7.7937264 7.7937264 7.7937264 7.7937264 7.7937264 7.7937264 7.7937264 7.7937264 7.7937264 7.716471 7.716471 7.716471 7.716471 7.716471 7.716471 7.716471 7.639216 7.639216 7.639216 7.639216 7.639216 7.639216 7.639216 7.639216 7.561961 7.561961 7.561961 7.561961 7.561961 7.561961 7.561961 7.561961 7.484706 7.484706 7.484706 7.484706
5.089804 5.089804 5.089804 5.089804 5.089804 5.167059 5.167059 5.167059 5.167059 5.167059 5.167059 5.167059 5.244314 5.244314 5.244314 5.244314 5.244314 5.321569 5.321569 5.321569 5.321569 5.321569 5.321569 5.321569 5.3988237 5.3988237 5.3988237 5.3988237 5.3988237 5.4760785 5.4760785 5.4760785 5.4760785 5.4760785 5.4760785 5.5533338 5.5533338 5.5533338 5.5533338 5.5533338 5.6305885 5.6305885 5.6305885 5.6305885 5.6305885 5.6305885 5.7078433 5.7078433 5.7078433 5.7078433 5.785098 5.785098 5.785098 5.785098 5.785098 5.8623533 5.8623533 5.8623533 5.8623533 5.8623533 5.939608 5.939608 5.939608 5.939608 6.016863 6.016863 6.016863 6.094118 6.094118 6.171373 6.171373 6.171373 6.2486277 6.2486277 6.3258824 6.3258824 6.3258824 6.4031377 6.4031377 6.4803925 6.4803925 6.557647 6.557647 6.557647 6.634902 6.634902 6.7121572 6.789412 6.789412 6.789412 6.789412 6.866667 6.866667 6.9439216 6.9439216 6.9439216 6.9439216 7.021177 7.021177 7.021177 7.0984316 7.0984316 7.1756864 7.1756864 7.1756864 7.252941 7.252941 7.252941 7.3301964 7.3301964 7.3301964 7.407451 7.407451 7.407451 7.484706 7.484706 7.561961 7.561961 7.561961 7.639216 7.639216 7.716471 7.716471 7.7937264 7.7937264 7.7937264 7.870981 7.870981 7.948236 7.948236 8.025491 8.025491 8.025491 8.102746 8.102746 8.18 8.18 8.257256 8.257256 8.334511 8.334511 8.411765 8.411765 8.411765 8.411765 8.334511 8.334511 8.334511 8.257256 8.257256 8.257256 8.18 8.18 8.18 8.18 8.102746 8.102746 8.102746 8.102746 8.102746 8.102746 8.102746 8.102746 8.102746 8.102746 8.102746 8.18 8.18 8.18 8.257256 8.257256 8.334511 8.334511 8.411765 8.411765 8.411765 8.411765 8.411765 8.411765 8.411765 8.334511 8.334511 8.334511 8.334511 8.334511 8.334511 8.334511 8.334511 8.334511 8.334511 8.334511 8.334511 8.334511 8.334511 8.334511 8.411765 8.411765 8.48902 9.570589 9.570589 9.570589 9.570589 9.493334 9.493334 9.493334 9.493334 9.493334 9.493334 9.4160795 9.4160795 9.4160795 9.338824 9.338824 9.338824 9.338824 9.338824 9.261569 9.261569 9.261569 9.261569 9.184315 9.184315 9.184315 9.184315 9.1070595 9.1070595 9.1070595 9.1070595 9.029804 9.029804 9.029804 9.029804 9.029804 8.95255 8.95255 8.95255 8.95255 8.95255 8.95255 8.95255 8.95255 8.875295 8.875295 8.875295 8.875295 8.875295 8.875295 8.798039 8.798039 8.798039 8.798039 8.798039 8.720785 8.720785 8.720785 8.720785 8.64353 8.64353 8.64353 8.64353 8.566276 8.566276 8.566276 8.566276 8.566276 8.48902 8.48902 8.48902 8.48902 8.48902 8.411765 8.411765 8.411765 8.411765 8.411765 8.334511 8.334511 8.334511 8.334511 8.257256 8.257256 8.257256 8.257256 8.257256 8.257256 8.18 8.18 8.18 8.18 8.18 8.18 8.102746 8.102746 8.102746 8.102746 8.102746 8.102746 8.025491 8.025491 8.025491 8.025491 8.025491 8.025491 8.025491 8.025491 8.025491 7.948236 7.948236 7.948236 7.948236 7.948236 7.948236 7.948236 7.948236 7.948236 7.948236 7.948236 7.870981 7.870981 7.870981 7.870981 7.870981 7.870981 7.870981 7.870981 7.7937264 7.7937264 7.7937264 7.7937264 7.7937264 7.7937264 7.7937264 7.7937264 7.7937264 7.716471 7.716471 7.716471 7.716471 7.716471 7.716471 7.716471 7.716471 7.639216 7.639216 7.639216 7.639216 7.639216 7.639216 7.639216 7.561961 7.561961 7.561961 7.561961 7.561961 7.561961 7.561961 7.561961 7.561961 7.484706 7.484706 7.484706 7.484706 7.484706 7.484706
5.089804 5.089804 5.089804 5.089804 5.089804 5.089804 5.167059 5.167059 5.167059 5.167059 5.167059 5.167059 5.167059 5.244314 5.244314 5.244314 5.244314 5.244314 5.244314 5.321569 5.321569 5.321569 5.321569 5.321569 5.321569 5.3988237 5.3988237 5.3988237 5.3988237 5.3988237 5.4760785 5.4760785 5.4760785 5.4760785 5.4760785 5.4760785 5.5533338 5.5533338 5.5533338 5.5533338 5.5533338 5.6305885 5.6305885 5.6305885 5.6305885 5.6305885 5.6305885 5.7078433 5.7078433 5.7078433 5.7078433 5.785098 5.785098 5.785098 5.785098 5.785098 5.785098 5.8623533 5.8623533 5.8623533 5.8623533 5.939608 5.939608 5.939608 6.016863 6.016863 6.016863 6.094118 6.094118 6.094118 6.171373 6.171373 6.2486277 6.2486277 6.2486277 6.3258824 6.3258824 6.4031377 6.4031377 6.4031377 6.4803925 6.4803925 6.557647 6.557647 6.557647 6.634902 6.7121572 6.7121572 6.789412 6.789412 6.789412 6.789412 6.866667 6.866667 6.9439216 6.9439216 6.9439216 6.9439216 7.021177 7.021177 7.0984316 7.0984316 7.0984316 7.1756864 7.1756864 7.1756864 7.252941 7.252941 7.252941 7.3301964 7.3301964 7.3301964 7.407451 7.407451 7.484706 7.484706 7.484706 7.561961 7.561961 7.639216 7.639216 7.639216 7.716471 7.716471 7.7937264 7.7937264 7.7937264 7.870981 7.870981 7.948236 7.948236 8.025491 8.025491 8.025491 8.102746 8.102746 8.18 8.18 8.257256 8.257256 8.334511 8.334511 8.411765 8.411765 8.334511 8.334511 8.257256 8.257256 8.257256 8.18 8.18 8.18 8.18 8.102746 8.102746 8.102746 8.102746 8.025491 8.025491 8.025491 8.025491 8.025491 8.025491 8.025491 8.025491 8.102746 8.102746 8.102746 8.18 8.18 8.257256 8.257256 8.334511 8.334511 8.334511 8.334511 8.334511 8.334511 8.334511 8.334511 8.334511 8.334511 8.334511 8.334511 8.334511 8.334511 8.334511 8.334511 8.334511 8.257256 8.257256 8.257256 8.334511 8.334511 8.334511 8.334511 8.334511 8.411765 8.48902 9.493334 9.493334 9.493334 9.493334 9.493334 9.493334 9.4160795 9.4160795 9.4160795 9.4160795 9.338824 9.338824 9.338824 9.338824 9.261569 9.261569 9.261569 9.261569 9.261569 9.184315 9.184315 9.184315 9.184315 9.1070595 9.1070595 9.1070595 9.1070595 9.029804 9.029804 9.029804 9.029804 8.95255 8.95255 8.95255 8.95255 8.875295 8.875295 8.875295 8.875295 8.875295 8.875295 8.875295 8.798039 8.798039 8.798039 8.798039 8.798039 8.798039 8.798039 8.720785 8.720785 8.720785 8.720785 8.720785 8.64353 8.64353 8.64353 8.64353 8.566276 8.566276 8.566276 8.566276 8.566276 8.48902 8.48902 8.48902 8.48902 8.48902 8.411765 8.411765 8.411765 8.411765 8.411765 8.334511 8.334511 8.334511 8.334511 8.257256 8.257256 8.257256 8.257256 8.257256 8.257256 8.18 8.18 8.18 8.18 8.18 8.18 8.102746 8.102746 8.102746 8.102746 8.102746 8.025491 8.025491 8.025491 8.025491 8.025491 8.025491 8.025491 8.025491 8.025491 7.948236 7.948236 7.948236 7.948236 7.948236 7.948236 7.948236 7.948236 7.948236 7.870981 7.870981 7.870981 7.870981 7.870981 7.870981 7.870981 7.870981 7.870981 7.870981 7.870981 7.7937264 7.7937264 7.7937264 7.7937264 7.7937264 7.7937264 7.7937264 7.7937264 7.7937264 7.716471 7.716471 7.716471 7.716471 7.716471 7.716471 7.716471 7.716471 7.639216 7.639216 7.639216 7.639216 7.639216 7.639216 7.639216 7.639216 7.561961 7.561961 7.561961 7.561961 7.561961 7.561961 7.561961 7.561961 7.484706 7.484706 7.484706 7.484706 7.484706 7.484706 7.484706 7.484706 7.484706
5.0125494 5.089804 5.089804 5.089804 5.089804 5.089804 5.089804 5.167059 5.167059 5.167059 5.167059 5.167059 5.167059 5.167059 5.244314 5.244314 5.244314 5.244314 5.244314 5.244314 5.321569 5.321569 5.321569 5.321569 5.321569 5.321569 5.3988237 5.3988237 5.3988237 5.3988237 5.3988237 5.4760785 5.4760785 5.4760785 5.4760785 5.4760785 5.4760785 5.4760785 5.5533338 5.5533338 5.5533338 5.5533338 5.6305885 5.6305885 5.6305885 5.6305885 5.6305885 5.6305885 5.7078433 5.7078433 5.7078433 5.7078433 5.7078433 5.785098 5.785098 5.785098 5.785098 5.785098 5.8623533 5.8623533 5.8623533 5.8623533 5.939608 5.939608 5.939608 6.016863 6.016863 6.094118 6.094118 6.094118 6.171373 6.171373 6.171373 6.2486277 6.2486277 6.3258824 6.3258824 6.3258824 6.4031377 6.4031377 6.4803925 6.4803925 6.4803925 6.557647 6.557647 6.634902 6.7121572 6.7121572 6.7121572 6.789412 6.789412 6.789412 6.866667 6.866667 6.866667 6.9439216 6.9439216 6.9439216 7.021177 7.021177 7.021177 7.0984316 7.0984316 7.0984316 7.1756864 7.1756864 7.1756864 7.252941 7.252941 7.252941 7.3301964 7.3301964 7.3301964 7.407451 7.407451 7.484706 7.484706 7.484706 7.561961 7.561961 7.639216 7.639216 7.639216 7.716471 7.716471 7.7937264 7.7937264 7.7937264 7.870981 7.870981 7.948236 7.948236 8.025491 8.025491 8.102746 8.102746 8.18 8.18 8.18 8.257256 8.257256 8.334511 8.334511 8.334511 8.334511 8.257256 8.257256 8.257256 8.18 8.18 8.18 8.102746 8.102746 8.102746 8.025491 8.025491 8.025491 8.025491 8.025491 8.025491 8.025491 8.025491 8.025491 8.025491 8.025491 8.025491 8.025491 8.102746 8.102746 8.18 8.18 8.257256 8.257256 8.334511 8.334511 8.334511 8.334511 8.334511 8.334511 8.334511 8.334511 8.334511 8.334511 8.257256 8.257256 8.257256 8.257256 8.257256 8.257256 8.257256 8.257256 8.257256 8.257256 8.257256 8.257256 8.257256 8.334511 8.334511 8.411765 9.493334 9.493334 9.4160795 9.4160795 9.4160795 9.4160795 9.4160795 9.338824 9.338824 9.338824 9.338824 9.338824 9.261569 9.261569 9.261569 9.261569 9.184315 9.184315 9.184315 9.184315 9.1070595 9.1070595 9.1070595 9.1070595 9.029804 9.029804 9.029804 9.029804 9.029804 8.95255 8.95255 8.95255 8.95255 8.875295 8.875295 8.875295 8.875295 8.798039 8.798039 8.798039 8.798039 8.798039 8.720785 8.720785 8.720785 8.720785 8.720785 8.720785 8.720785 8.720785 8.720785 8.64353 8.64353 8.64353 8.64353 8.566276 8.566276 8.566276 8.566276 8.566276 8.48902 8.48902 8.48902 8.48902 8.48902 8.411765 8.411765 8.411765 8.411765 8.411765 8.411765 8.334511 8.334511 8.334511 8.334511 8.257256 8.257256 8.257256 8.257256 8.257256 8.18 8.18 8.18 8.18 8.18 8.18 8.102746 8.102746 8.102746 8.102746 8.102746 8.025491 8.025491 8.025491 8.025491 8.025491 8.025491 8.025491 7.948236 7.948236 7.948236 7.948236 7.948236 7.948236 7.948236 7.948236 7.948236 7.870981 7.870981 7.870981 7.870981 7.870981 7.870981 7.870981 7.870981 7.870981 7.870981 7.870981 7.7937264 7.7937264 7.7937264 7.7937264 7.7937264 7.7937264 7.7937264 7.7937264 7.7937264 7.7937264 7.7937264 7.716471 7.716471 7.716471 7.716471 7.716471 7.716471 7.716471 7.716471 7.639216 7.639216 7.639216 7.639216 7.639216 7.639216 7.639216 7.639216 7.561961 7.561961 7.561961 7.561961 7.561961 7.561961 7.561961 7.561961 7.561961 7.484706 7.484706 7.484706 7.484706 7.484706 7.484706 7.484706 7.484706 7.407451 7.407451 7.407451
5.0125494 5.0125494 5.089804 5.089804 5.089804 5.089804 5.089804 5.089804 5.089804 5.167059 5.167059 5.167059 5.167059 5.167059 5.167059 5.244314 5.244314 5.244314 5.244314 5.244314 5.244314 5.321569 5.321569 5.321569 5.321569 5.321569 5.321569 5.3988237 5.3988237 5.3988237 5.3988237 5.3988237 5.4760785 5.4760785 5.4760785 5.4760785 5.4760785 5.4760785 5.4760785 5.5533338 5.5533338 5.5533338 5.5533338 5.5533338 5.6305885 5.6305885 5.6305885 5.6305885 5.6305885 5.6305885 5.7078433 5.7078433 5.7078433 5.7078433 5.785098 5.785098 5.785098 5.785098 5.785098 5.785098 5.8623533 5.8623533 5.8623533 5.939608 5.939608 6.016863 6.016863 6.016863 6.094118 6.094118 6.094118 6.171373 6.171373 6.2486277 6.2486277 6.2486277 6.3258824 6.3258824 6.4031377 6.4031377 6.4031377 6.4803925 6.4803925 6.557647 6.557647 6.557647 6.634902 6.7121572 6.7121572 6.7121572 6.789412 6.789412 6.789412 6.866667 6.866667 6.866667 6.9439216 6.9439216 6.9439216 7.021177 7.021177 7.021177 7.0984316 7.0984316 7.0984316 7.1756864 7.1756864 7.1756864 7.252941 7.252941 7.252941 7.3301964 7.3301964 7.407451 7.407451 7.407451 7.484706 7.484706 7.484706 7.561961 7.561961 7.639216 7.639216 7.716471 7.716471 7.716471 7.7937264 7.7937264 7.870981 7.870981 7.870981 7.948236 7.948236 8.025491 8.025491 8.102746 8.102746 8.18 8.18 8.18 8.257256 8.257256 8.257256 8.257256 8.257256 8.257256 8.18 8.18 8.18 8.102746 8.102746 8.102746 8.025491 8.025491 8.025491 8.025491 8.025491 8.025491 8.025491 7.948236 7.948236 7.948236 7.948236 8.025491 8.025491 8.025491 8.025491 8.025491 8.102746 8.18 8.18 8.257256 8.257256 8.257256 8.334511 8.334511 8.334511 8.334511 8.334511 8.334511 8.257256 8.257256 8.257256 8.257256 8.257256 8.257256 8.257256 8.257256 8.257256 8.257256 8.257256 8.257256 8.257256 8.257256 8.257256 8.257256 8.257256 8.257256 8.334511 8.411765 9.4160795 9.4160795 9.4160795 9.338824 9.338824 9.338824 9.338824 9.338824 9.261569 9.261569 9.261569 9.261569 9.261569 9.184315 9.184315 9.184315 9.184315 9.1070595 9.1070595 9.1070595 9.1070595 9.029804 9.029804 9.029804 9.029804 8.95255 8.95255 8.95255 8.95255 8.875295 8.875295 8.875295 8.875295 8.875295 8.798039 8.798039 8.798039 8.798039 8.720785 8.720785 8.720785 8.720785 8.64353 8.64353 8.64353 8.64353 8.64353 8.64353 8.64353 8.64353 8.64353 8.566276 8.566276 8.566276 8.566276 8.566276 8.48902 8.48902 8.48902 8.48902 8.48902 8.411765 8.411765 8.411765 8.411765 8.411765 8.411765 8.334511 8.334511 8.334511 8.334511 8.257256 8.257256 8.257256 8.257256 8.257256 8.18 8.18 8.18 8.18 8.18 8.18 8.102746 8.102746 8.102746 8.102746 8.102746 8.025491 8.025491 8.025491 8.025491 8.025491 8.025491 8.025491 7.948236 7.948236 7.948236 7.948236 7.948236 7.948236 7.870981 7.870981 7.870981 7.870981 7.870981 7.870981 7.870981 7.870981 7.870981 7.870981 7.870981 7.7937264 7.7937264 7.7937264 7.7937264 7.7937264 7.7937264 7.7937264 7.7937264 7.7937264 7.7937264 7.7937264 7.7937264 7.7937264 7.7937264 7.716471 7.716471 7.716471 7.716471 7.716471 7.716471 7.716471 7.716471 7.716471 7.639216 7.639216 7.639216 7.639216 7.639216 7.639216 7.639216 7.561961 7.561961 7.561961 7.561961 7.561961 7.561961 7.561961 7.561961 7.561961 7.484706 7.484706 7.484706 7.484706 7.484706 7.484706 7.484706 7.484706 7.484706 7.407451 7.407451 7.407451 7.407451 7.407451
5.0125494 5.0125494 5.0125494 5.0125494 5.089804 5.089804 5.089804 5.089804 5.089804 5.089804 5.167059 5.167059 5.167059 5.167059 5.167059 5.167059 5.167059 5.244314 5.244314 5.244314 5.244314 5.244314 5.321569 5.321569 5.321569 5.321569 5.321569 5.321569 5.321569 5.3988237 5.3988237 5.3988237 5.3988237 5.3988237 5.4760785 5.4760785 5.4760785 5.4760785 5.4760785 5.4760785 5.5533338 5.5533338 5.5533338 5.5533338 5.5533338 5.6305885 5.6305885 5.6305885 5.6305885 5.6305885 5.6305885 5.7078433 5.7078433 5.7078433 5.7078433 5.7078433 5.785098 5.785098 5.785098 5.785098 5.8623533 5.8623533 5.8623533 5.939608 5.939608 5.939608 6.016863 6.016863 6.094118 6.094118 6.094118 6.171373 6.171373 6.171373 6.2486277 6.2486277 6.3258824 6.3258824 6.3258824 6.4031377 6.4031377 6.4031377 6.4803925 6.4803925 6.557647 6.557647 6.634902 6.634902 6.7121572 6.7121572 6.789412 6.789412 6.789412 6.789412 6.866667 6.866667 6.866667 6.9439216 6.9439216 6.9439216 7.021177 7.021177 7.021177 7.0984316 7.0984316 7.0984316 7.1756864 7.1756864 7.1756864 7.252941 7.252941 7.3301964 7.3301964 7.3301964 7.407451 7.407451 7.407451 7.484706 7.484706 7.561961 7.561961 7.561961 7.639216 7.639216 7.716471 7.716471 7.716471 7.7937264 7.7937264 7.870981 7.870981 7.948236 7.948236 7.948236 8.025491 8.025491 8.102746 8.102746 8.18 8.18 8.257256 8.257256 8.18 8.18 8.18 8.18 8.18 8.102746 8.102746 8.102746 8.025491 8.025491 8.025491 8.025491 8.025491 7.948236 7.948236 7.948236 7.948236 7.948236 7.948236 7.948236 7.948236 7.948236 7.948236 7.948236 8.025491 8.025491 8.025491 8.102746 8.18 8.18 8.257256 8.257256 8.257256 8.257256 8.257256 8.257256 8.257256 8.257256 8.257256 8.257256 8.257256 8.257256 8.257256 8.257256 8.257256 8.257256 8.257256 8.257256 8.18 8.18 8.18 8.18 8.257256 8.257256 8.257256 8.257256 8.257256 8.334511 8.411765 9.338824 9.338824 9.338824 9.338824 9.261569 9.261569 9.261569 9.261569 9.261569 9.184315 9.184315 9.184315 9.184315 9.1070595 9.1070595 9.1070595 9.1070595 9.029804 9.029804 9.029804 9.029804 9.029804 8.95255 8.95255 8.95255 8.95255 8.875295 8.875295 8.875295 8.875295 8.798039 8.798039 8.798039 8.798039 8.720785 8.720785 8.720785 8.720785 8.720785 8.64353 8.64353 8.64353 8.64353 8.566276 8.566276 8.566276 8.566276 8.566276 8.566276 8.566276 8.48902 8.48902 8.48902 8.48902 8.48902 8.48902 8.48902 8.411765 8.411765 8.411765 8.411765 8.411765 8.411765 8.334511 8.334511 8.334511 8.334511 8.257256 8.257256 8.257256 8.257256 8.257256 8.257256 8.18 8.18 8.18 8.18 8.18 8.102746 8.102746 8.102746 8.102746 8.102746 8.025491 8.025491 8.025491 8.025491 8.025491 8.025491 7.948236 7.948236 7.948236 7.948236 7.948236 7.948236 7.948236 7.870981 7.870981 7.870981 7.870981 7.870981 7.870981 7.870981 7.7937264 7.7937264 7.7937264 7.7937264 7.7937264 7.7937264 7.7937264 7.7937264 7.7937264 7.7937264 7.7937264 7.7937264 7.7937264 7.7937264 7.7937264 7.7937264 7.7937264 7.716471 7.716471 7.716471 7.716471 7.716471 7.716471 7.716471 7.716471 7.716471 7.639216 7.639216 7.639216 7.639216 7.639216 7.639216 7.639216 7.639216 7.639216 7.561961 7.561961 7.561961 7.561961 7.561961 7.561961 7.561961 7.561961 7.484706 7.484706 7.484706 7.484706 7.484706 7.484706 7.484706 7.484706 7.484706 7.407451 7.407451 7.407451 7.407451 7.407451 7.407451 7.407451 7.407451
5.0125494 5.0125494 5.0125494 5.0125494 5.0125494 5.089804 5.089804 5.089804 5.089804 5.089804 5.089804 5.167059 5.167059 5.167059 5.167059 5.167059 5.167059 5.167059 5.244314 5.244314 5.244314 5.244314 5.244314 5.244314 5.321569 5.321569 5.321569 5.321569 5.321569 5.321569 5.3988237 5.3988237 5.3988237 5.3988237 5.3988237 5.4760785 5.4760785 5.4760785 5.4760785 5.4760785 5.4760785 5.4760785 5.5533338 5.5533338 5.5533338 5.5533338 5.5533338 5.6305885 5.6305885 5.6305885 5.6305885 5.6305885 5.6305885 5.7078433 5.7078433 5.7078433 5.7078433 5.785098 5.785098 5.785098 5.785098 5.8623533 5.8623533 5.939608 5.939608 5.939608 6.016863 6.016863 6.016863 6.094118 6.094118 6.094118 6.171373 6.171373 6.2486277 6.2486277 6.2486277 6.3258824 6.3258824 6.3258824 6.4031377 6.4031377 6.4031377 6.4803925 6.557647 6.557647 6.634902 6.634902 6.7121572 6.7121572 6.7121572 6.789412 6.789412 6.789412 6.789412 6.866667 6.866667 6.866667 6.9439216 6.9439216 6.9439216 7.021177 7.021177 7.021177 7.0984316 7.0984316 7.1756864 7.1756864 7.1756864 7.252941 7.252941 7.252941 7.3301964 7.3301964 7.3301964 7.407451 7.407451 7.407451 7.484706 7.484706 7.561961 7.561961 7.561961 7.639216 7.639216 7.716471 7.716471 7.7937264 7.7937264 7.7937264 7.870981 7.870981 7.948236 7.948236 8.025491 8.025491 8.025491 8.102746 8.102746 8.18 8.18 8.18 8.18 8.18 8.18 8.18 8.102746 8.102746 8.102746 8.025491 8.025491 8.025491 8.025491 7.948236 7.948236 7.948236 7.948236 7.948236 7.948236 7.948236 7.948236 7.948236 7.948236 7.948236 7.948236 7.948236 7.948236 8.025491 8.025491 8.102746 8.102746 8.18 8.18 8.257256 8.257256 8.257256 8.257256 8.257256 8.257256 8.257256 8.257256 8.257256 8.257256 8.257256 8.257256 8.18 8.18 8.18 8.18 8.18 8.18 8.18 8.18 8.18 8.18 8.18 8.18 8.257256 8.257256 8.257256 8.334511 9.338824 9.261569 9.261569 9.261569 9.261569 9.261569 9.184315 9.184315 9.184315 9.184315 9.184315 9.1070595 9.1070595 9.1070595 9.1070595 9.029804 9.029804 9.029804 9.029804 8.95255 8.95255 8.95255 8.95255 8.875295 8.875295 8.875295 8.875295 8.875295 8.798039 8.798039 8.798039 8.798039 8.720785 8.720785 8.720785 8.720785 8.64353 8.64353 8.64353 8.64353 8.566276 8.566276 8.566276 8.566276 8.566276 8.48902 8.48902 8.48902 8.48902 8.48902 8.48902 8.411765 8.411765 8.411765 8.411765 8.411765 8.411765 8.334511 8.334511 8.334511 8.334511 8.334511 8.334511 8.257256 8.257256 8.257256 8.257256 8.257256 8.257256 8.257256 8.18 8.18 8.18 8.18 8.18 8.18 8.102746 8.102746 8.102746 8.102746 8.025491 8.025491 8.025491 8.025491 8.025491 8.025491 7.948236 7.948236 7.948236 7.948236 7.948236 7.948236 7.870981 7.870981 7.870981 7.870981 7.870981 7.870981 7.870981 7.7937264 7.7937264 7.7937264 7.7937264 7.7937264 7.7937264 7.7937264 7.7937264 7.7937264 7.7937264 7.7937264 7.716471 7.716471 7.716471 7.716471 7.716471 7.716471 7.716471 7.716471 7.716471 7.716471 7.716471 7.716471 7.716471 7.716471 7.716471 7.716471 7.639216 7.639216 7.639216 7.639216 7.639216 7.639216 7.639216 7.639216 7.639216 7.561961 7.561961 7.561961 7.561961 7.561961 7.561961 7.561961 7.561961 7.484706 7.484706 7.484706 7.484706 7.484706 7.484706 7.484706 7.484706 7.484706 7.407451 7.407451 7.407451 7.407451 7.407451 7.407451 7.407451 7.407451 7.407451 7.3301964 7.3301964
5.0125494 5.0125494 5.0125494 5.0125494 5.0125494 5.0125494 5.089804 5.089804 5.089804 5.089804 5.089804 5.089804 5.167059 5.167059 5.167059 5.167059 5.167059 5.167059 5.167059 5.244314 5.244314 5.244314 5.244314 5.244314 5.244314 5.321569 5.321569 5.321569 5.321569 5.321569 5.321569 5.3988237 5.3988237 5.3988237 5.3988237 5.3988237 5.4760785 5.4760785 5.4760785 5.4760785 5.4760785 5.4760785 5.4760785 5.4760785 5.5533338 5.5533338 5.5533338 5.5533338 5.5533338 5.6305885 5.6305885 5.6305885 5.6305885 5.6305885 5.6305885 5.7078433 5.7078433 5.7078433 5.785098 5.785098 5.785098 5.8623533 5.8623533 5.8623533 5.939608 5.939608 6.016863 6.016863 6.016863 6.094118 6.094118 6.094118 6.171373 6.171373 6.171373 6.2486277 6.2486277 6.2486277 6.3258824 6.3258824 6.3258824 6.4031377 6.4031377 6.4803925 6.4803925 6.557647 6.557647 6.634902 6.634902 6.7121572 6.7121572 6.7121572 6.789412 6.789412 6.789412 6.789412 6.866667 6.866667 6.9439216 6.9439216 6.9439216 6.9439216 7.021177 7.021177 7.0984316 7.0984316 7.0984316 7.1756864 7.1756864 7.1756864 7.252941 7.252941 7.252941 7.3301964 7.3301964 7.3301964 7.407451 7.407451 7.484706 7.484706 7.484706 7.561961 7.561961 7.561961 7.639216 7.639216 7.716471 7.716471 7.7937264 7.7937264 7.7937264 7.870981 7.870981 7.948236 7.948236 8.025491 8.025491 8.025491 8.102746 8.102746 8.18 8.18 8.18 8.102746 8.102746 8.102746 8.102746 8.025491 8.025491 8.025491 8.025491 8.025491 7.948236 7.948236 7.948236 7.948236 7.948236 7.870981 7.870981 7.870981 7.870981 7.870981 7.870981 7.870981 7.870981 7.948236 7.948236 7.948236 8.025491 8.025491 8.102746 8.102746 8.18 8.18 8.257256 8.257256 8.257256 8.257256 8.257256 8.257256 8.257256 8.257256 8.257256 8.18 8.18 8.18 8.18 8.18 8.18 8.18 8.18 8.18 8.18 8.18 8.18 8.18 8.18 8.18 8.18 8.257256 8.257256 9.261569 9.261569 9.261569 9.184315 9.184315 9.184315 9.184315 9.184315 9.1070595 9.1070595 9.1070595 9.1070595 9.029804 9.029804 9.029804 9.029804 9.029804 8.95255 8.95255 8.95255 8.95255 8.875295 8.875295 8.875295 8.875295 8.798039 8.798039 8.798039 8.798039 8.798039 8.720785 8.720785 8.720785 8.720785 8.64353 8.64353 8.64353 8.64353 8.566276 8.566276 8.566276 8.566276 8.48902 8.48902 8.48902 8.48902 8.48902 8.411765 8.411765 8.411765 8.411765 8.411765 8.334511 8.334511 8.334511 8.334511 8.334511 8.257256 8.257256 8.257256 8.257256 8.257256 8.257256 8.257256 8.18 8.18 8.18 8.18 8.18 8.18 8.18 8.102746 8.102746 8.102746 8.102746 8.102746 8.102746 8.025491 8.025491 8.025491 8.025491 8.025491 8.025491 8.025491 7.948236 7.948236 7.948236 7.948236 7.948236 7.870981 7.870981 7.870981 7.870981 7.870981 7.870981 7.7937264 7.7937264 7.7937264 7.7937264 7.7937264 7.7937264 7.7937264 7.7937264 7.716471 7.716471 7.716471 7.716471 7.716471 7.716471 7.716471 7.716471 7.716471 7.716471 7.716471 7.716471 7.716471 7.716471 7.716471 7.639216 7.639216 7.639216 7.639216 7.639216 7.639216 7.639216 7.639216 7.639216 7.639216 7.639216 7.639216 7.639216 7.639216 7.561961 7.561961 7.561961 7.561961 7.561961 7.561961 7.561961 7.561961 7.484706 7.484706 7.484706 7.484706 7.484706 7.484706 7.484706 7.484706 7.484706 7.407451 7.407451 7.407451 7.407451 7.407451 7.407451 7.407451 7.407451 7.407451 7.3301964 7.3301964 7.3301964 7.3301964 7.3301964
4.9352946 5.0125494 5.0125494 5.0125494 5.0125494 5.0125494 5.0125494 5.089804 5.089804 5.089804 5.089804 5.089804 5.089804 5.089804 5.167059 5.167059 5.167059 5.167059 5.167059 5.167059 5.167059 5.244314 5.244314 5.244314 5.244314 5.244314 5.321569 5.321569 5.321569 5.321569 5.321569 5.321569 5.321569 5.3988237 5.3988237 5.3988237 5.3988237 5.3988237 5.4760785 5.4760785 5.4760785 5.4760785 5.4760785 5.4760785 5.4760785 5.4760785 5.5533338 5.5533338 5.5533338 5.5533338 5.5533338 5.6305885 5.6305885 5.6305885 5.6305885 5.6305885 5.7078433 5.7078433 5.785098 5.785098 5.785098 5.785098 5.8623533 5.8623533 5.939608 5.939608 5.939608 6.016863 6.016863 6.016863 6.094118 6.094118 6.094118 6.171373 6.171373 6.171373 6.2486277 6.2486277 6.2486277 6.3258824 6.3258824 6.4031377 6.4031377 6.4803925 6.4803925 6.557647 6.557647 6.634902 6.634902 6.634902 6.7121572 6.7121572 6.7121572 6.789412 6.789412 6.789412 6.866667 6.866667 6.866667 6.9439216 6.9439216 6.9439216 7.021177 7.021177 7.021177 7.0984316 7.0984316 7.0984316 7.1756864 7.1756864 7.1756864 7.252941 7.252941 7.252941 7.3301964 7.3301964 7.3301964 7.407451 7.407451 7.484706 7.484706 7.484706 7.561961 7.561961 7.639216 7.639216 7.639216 7.716471 7.716471 7.7937264 7.7937264 7.7937264 7.870981 7.870981 7.948236 7.948236 8.025491 8.025491 8.102746 8.102746 8.102746 8.102746 8.102746 8.102746 8.102746 8.102746 8.025491 8.025491 8.025491 8.025491 7.948236 7.948236 7.948236 7.948236 7.948236 7.870981 7.870981 7.870981 7.870981 7.870981 7.870981 7.870981 7.870981 7.870981 7.870981 7.870981 7.870981 7.948236 7.948236 8.025491 8.025491 8.102746 8.102746 8.18 8.18 8.257256 8.257256 8.257256 8.257256 8.257256 8.18 8.18 8.18 8.18 8.18 8.18 8.18 8.18 8.18 8.18 8.18 8.18 8.18 8.18 8.18 8.18 8.18 8.18 8.18 8.18 8.18 8.257256 9.184315 9.184315 9.184315 9.1070595 9.1070595 9.1070595 9.1070595 9.1070595 9.029804 9.029804 9.029804 9.029804 9.029804 8.95255 8.95255 8.95255 8.95255 8.875295 8.875295 8.875295 8.875295 8.875295 8.798039 8.798039 8.798039 8.798039 8.720785 8.720785 8.720785 8.720785 8.64353 8.64353 8.64353 8.64353 8.566276 8.566276 8.566276 8.566276 8.566276 8.48902 8.48902 8.48902 8.48902 8.411765 8.411765 8.411765 8.411765 8.411765 8.334511 8.334511 8.334511 8.334511 8.257256 8.257256 8.257256 8.257256 8.257256 8.257256 8.18 8.18 8.18 8.18 8.18 8.18 8.18 8.102746 8.102746 8.102746 8.102746 8.102746 8.102746 8.025491 8.025491 8.025491 8.025491 8.025491 8.025491 8.025491 8.025491 7.948236 7.948236 7.948236 7.948236 7.948236 7.870981 7.870981 7.870981 7.870981 7.870981 7.870981 7.7937264 7.7937264 7.7937264 7.7937264 7.7937264 7.7937264 7.7937264 7.7937264 7.716471 7.716471 7.716471 7.716471 7.716471 7.716471 7.716471 7.639216 7.639216 7.639216 7.639216 7.639216 7.639216 7.639216 7.639216 7.639216 7.639216 7.639216 7.639216 7.639216 7.639216 7.639216 7.639216 7.639216 7.639216 7.639216 7.639216 7.561961 7.561961 7.561961 7.561961 7.561961 7.561961 7.561961 7.561961 7.561961 7.561961 7.561961 7.484706 7.484706 7.484706 7.484706 7.484706 7.484706 7.484706 7.484706 7.484706 7.407451 7.407451 7.407451 7.407451 7.407451 7.407451 7.407451 7.407451 7.407451 7.3301964 7.3301964 7.3301964 7.3301964 7.3301964 7.3301964 7.3301964 7.3301964
4.9352946 4.9352946 5.0125494 5.0125494 5.0125494 5.0125494 5.0125494 5.0125494 5.0125494 5.089804 5.089804 5.089804 5.089804 5.089804 5.089804 5.167059 5.167059 5.167059 5.167059 5.167059 5.167059 5.167059 5.244314 5.244314 5.244314 5.244314 5.244314 5.244314 5.321569 5.321569 5.321569 5.321569 5.321569 5.321569 5.321569 5.3988237 5.3988237 5.3988237 5.3988237 5.3988237 5.3988237 5.4760785 5.4760785 5.4760785 5.4760785 5.4760785 5.4760785 5.4760785 5.5533338 5.5533338 5.5533338 5.5533338 5.5533338 5.6305885 5.6305885 5.6305885 5.7078433 5.7078433 5.7078433 5.785098 5.785098 5.785098 5.8623533 5.8623533 5.8623533 5.939608 5.939608 6.016863 6.016863 6.016863 6.094118 6.094118 6.094118 6.094118 6.171373 6.171373 6.171373 6.2486277 6.2486277 6.3258824 6.3258824 6.3258824 6.4031377 6.4031377 6.4803925 6.4803925 6.557647 6.557647 6.634902 6.634902 6.634902 6.7121572 6.7121572 6.7121572 6.789412 6.789412 6.789412 6.866667 6.866667 6.866667 6.9439216 6.9439216 6.9439216 7.021177 7.021177 7.021177 7.0984316 7.0984316 7.0984316 7.1756864 7.1756864 7.1756864 7.252941 7.252941 7.252941 7.3301964 7.3301964 7.407451 7.407451 7.407451 7.484706 7.484706 7.484706 7.561961 7.561961 7.639216 7.639216 7.639216 7.716471 7.716471 7.7937264 7.7937264 7.7937264 7.870981 7.870981 7.948236 7.948236 8.025491 8.025491 8.102746 8.102746 8.102746 8.102746 8.102746 8.025491 8.025491 8.025491 8.025491 8.025491 7.948236 7.948236 7.948236 7.948236 7.870981 7.870981 7.870981 7.870981 7.870981 7.870981 7.870981 7.7937264 7.7937264 7.870981 7.870981 7.870981 7.870981 7.870981 7.870981 7.948236 7.948236 8.025491 8.025491 8.102746 8.18 8.18 8.18 8.18 8.18 8.18 8.18 8.18 8.18 8.18 8.18 8.18 8.18 8.18 8.18 8.18 8.18 8.102746 8.102746 8.102746 8.102746 8.102746 8.102746 8.102746 8.102746 8.18 8.18 8.18 8.18 8.334511 9.1070595 9.1070595 9.1070595 9.029804 9.029804 9.029804 9.029804 9.029804 9.029804 8.95255 8.95255 8.95255 8.95255 8.875295 8.875295 8.875295 8.875295 8.875295 8.798039 8.798039 8.798039 8.798039 8.720785 8.720785 8.720785 8.720785 8.720785 8.64353 8.64353 8.64353 8.64353 8.566276 8.566276 8.566276 8.566276 8.48902 8.48902 8.48902 8.48902 8.411765 8.411765 8.411765 8.411765 8.411765 8.334511 8.334511 8.334511 8.334511 8.257256 8.257256 8.257256 8.257256 8.257256 8.18 8.18 8.18 8.18 8.18 8.18 8.102746 8.102746 8.102746 8.102746 8.102746 8.025491 8.025491 8.025491 8.025491 8.025491 8.025491 8.025491 8.025491 8.025491 7.948236 7.948236 7.948236 7.948236 7.948236 7.948236 7.870981 7.870981 7.870981 7.870981 7.870981 7.870981 7.7937264 7.7937264 7.7937264 7.7937264 7.7937264 7.7937264 7.7937264 7.716471 7.716471 7.716471 7.716471 7.716471 7.716471 7.716471 7.716471 7.639216 7.639216 7.639216 7.639216 7.639216 7.639216 7.639216 7.639216 7.561961 7.561961 7.561961 7.561961 7.561961 7.561961 7.561961 7.561961 7.561961 7.561961 7.561961 7.561961 7.561961 7.561961 7.561961 7.561961 7.561961 7.561961 7.561961 7.561961 7.561961 7.561961 7.561961 7.484706 7.484706 7.484706 7.484706 7.484706 7.484706 7.484706 7.484706 7.484706 7.484706 7.407451 7.407451 7.407451 7.407451 7.407451 7.407451 7.407451 7.407451 7.3301964 7.3301964 7.3301964 7.3301964 7.3301964 7.3301964 7.3301964 7.3301964 7.3301964 7.3301964 7.252941 7.252941
4.9352946 4.9352946 4.9352946 5.0125494 5.0125494 5.0125494 5.0125494 5.0125494 5.0125494 5.0125494 5.089804 5.089804 5.089804 5.089804 5.089804 5.089804 5.167059 5.167059 5.167059 5.167059 5.167059 5.167059 5.167059 5.167059 5.244314 5.244314 5.244314 5.244314 5.244314 5.244314 5.321569 5.321569 5.321569 5.321569 5.321569 5.321569 5.321569 5.3988237 5.3988237 5.3988237 5.3988237 5.3988237 5.3988237 5.4760785 5.4760785 5.4760785 5.4760785 5.4760785 5.4760785 5.4760785 5.5533338 5.5533338 5.5533338 5.6305885 5.6305885 5.6305885 5.6305885 5.7078433 5.7078433 5.785098 5.785098 5.785098 5.785098 5.8623533 5.8623533 5.939608 5.939608 5.939608 6.016863 6.016863 6.016863 6.094118 6.094118 6.094118 6.171373 6.171373 6.171373 6.2486277 6.2486277 6.2486277 6.3258824 6.3258824 6.4031377 6.4031377 6.4803925 6.4803925 6.557647 6.557647 6.557647 6.634902 6.634902 6.634902 6.7121572 6.7121572 6.7121572 6.789412 6.789412 6.789412 6.866667 6.866667 6.866667 6.9439216 6.9439216 6.9439216 7.021177 7.021177 7.021177 7.0984316 7.0984316 7.0984316 7.1756864 7.1756864 7.1756864 7.252941 7.252941 7.252941 7.3301964 7.3301964 7.407451 7.407451 7.407451 7.484706 7.484706 7.561961 7.561961 7.561961 7.639216 7.639216 7.716471 7.716471 7.716471 7.7937264 7.7937264 7.870981 7.870981 7.870981 7.948236 7.948236 8.025491 8.025491 8.025491 8.025491 8.025491 8.025491 8.025491 8.025491 8.025491 7.948236 7.948236 7.948236 7.948236 7.948236 7.870981 7.870981 7.870981 7.870981 7.870981 7.870981 7.7937264 7.7937264 7.7937264 7.7937264 7.7937264 7.7937264 7.7937264 7.870981 7.870981 7.870981 7.870981 7.948236 8.025491 8.025491 8.025491 8.102746 8.18 8.18 8.18 8.18 8.18 8.18 8.18 8.18 8.18 8.18 8.18 8.18 8.102746 8.102746 8.102746 8.102746 8.102746 8.102746 8.102746 8.102746 8.102746 8.102746 8.102746 8.102746 8.102746 8.102746 8.18 8.18 8.18 9.029804 9.029804 9.029804 9.029804 9.029804 9.029804 8.95255 8.95255 8.95255 8.95255 8.875295 8.875295 8.875295 8.875295 8.875295 8.798039 8.798039 8.798039 8.798039 8.798039 8.720785 8.720785 8.720785 8.720785 8.64353 8.64353 8.64353 8.64353 8.566276 8.566276 8.566276 8.566276 8.48902 8.48902 8.48902 8.48902 8.48902 8.411765 8.411765 8.411765 8.411765 8.334511 8.334511 8.334511 8.334511 8.257256 8.257256 8.257256 8.257256 8.257256 8.18 8.18 8.18 8.18 8.18 8.102746 8.102746 8.102746 8.102746 8.102746 8.025491 8.025491 8.025491 8.025491 8.025491 8.025491 8.025491 7.948236 7.948236 7.948236 7.948236 7.948236 7.948236 7.870981 7.870981 7.870981 7.870981 7.870981 7.870981 7.870981 7.870981 7.7937264 7.7937264 7.7937264 7.7937264 7.7937264 7.7937264 7.7937264 7.7937264 7.716471 7.716471 7.716471 7.716471 7.716471 7.716471 7.639216 7.639216 7.639216 7.639216 7.639216 7.639216 7.639216 7.639216 7.561961 7.561961 7.561961 7.561961 7.561961 7.561961 7.561961 7.561961 7.561961 7.561961 7.561961 7.484706 7.484706 7.484706 7.484706 7.484706 7.484706 7.484706 7.484706 7.484706 7.484706 7.484706 7.484706 7.484706 7.484706 7.484706 7.484706 7.484706 7.484706 7.484706 7.484706 7.484706 7.484706 7.484706 7.407451 7.407451 7.407451 7.407451 7.407451 7.407451 7.407451 7.407451 7.407451 7.3301964 7.3301964 7.3301964 7.3301964 7.3301964 7.3301964 7.3301964 7.3301964 7.3301964 7.3301964 7.252941 7.252941 7.252941 7.252941 7.252941
4.9352946 4.9352946 4.9352946 4.9352946 4.9352946 5.0125494 5.0125494 5.0125494 5.0125494 5.0125494 5.0125494 5.089804 5.089804 5.089804 5.089804 5.089804 5.089804 5.089804 5.167059 5.167059 5.167059 5.167059 5.167059 5.167059 5.167059 5.167059 5.244314 5.244314 5.244314 5.244314 5.244314 5.244314 5.321569 5.321569 5.321569 5.321569 5.321569 5.321569 5.321569 5.3988237 5.3988237 5.3988237 5.3988237 5.3988237 5.3988237 5.4760785 5.4760785 5.4760785 5.4760785 5.4760785 5.4760785 5.5533338 5.5533338 5.5533338 5.6305885 5.6305885 5.6305885 5.7078433 5.7078433 5.7078433 5.785098 5.785098 5.785098 5.8623533 5.8623533 5.8623533 5.939608 5.939608 5.939608 6.016863 6.016863 6.016863 6.094118 6.094118 6.094118 6.171373 6.171373 6.171373 6.2486277 6.2486277 6.2486277 6.3258824 6.3258824 6.4031377 6.4031377 6.4803925 6.4803925 6.557647 6.557647 6.634902 6.634902 6.634902 6.7121572 6.7121572 6.7121572 6.789412 6.789412 6.789412 6.789412 6.866667 6.866667 6.866667 6.9439216 6.9439216 6.9439216 7.021177 7.021177 7.021177 7.0984316 7.0984316 7.0984316 7.1756864 7.1756864 7.252941 7.252941 7.252941 7.3301964 7.3301964 7.3301964 7.407451 7.407451 7.407451 7.484706 7.484706 7.561961 7.561961 7.561961 7.639216 7.639216 7.716471 7.716471 7.7937264 7.7937264 7.7937264 7.870981 7.870981 7.948236 7.948236 8.025491 8.025491 8.025491 8.025491 8.025491 8.025491 8.025491 8.025491 7.948236 7.948236 7.948236 7.948236 7.948236 7.870981 7.870981 7.870981 7.870981 7.7937264 7.7937264 7.7937264 7.7937264 7.7937264 7.7937264 7.7937264 7.7937264 7.7937264 7.7937264 7.7937264 7.7937264 7.870981 7.870981 7.948236 7.948236 8.025491 8.025491 8.102746 8.102746 8.18 8.18 8.18 8.18 8.18 8.18 8.18 8.18 8.18 8.102746 8.102746 8.102746 8.102746 8.102746 8.102746 8.102746 8.102746 8.102746 8.102746 8.102746 8.102746 8.102746 8.102746 8.102746 8.102746 8.102746 8.18 8.18 9.029804 9.029804 9.029804 8.95255 8.95255 8.95255 8.95255 8.875295 8.875295 8.875295 8.875295 8.875295 8.875295 8.798039 8.798039 8.798039 8.798039 8.720785 8.720785 8.720785 8.720785 8.64353 8.64353 8.64353 8.64353 8.566276 8.566276 8.566276 8.566276 8.566276 8.48902 8.48902 8.48902 8.48902 8.411765 8.411765 8.411765 8.411765 8.411765 8.334511 8.334511 8.334511 8.334511 8.257256 8.257256 8.257256 8.257256 8.18 8.18 8.18 8.18 8.18 8.102746 8.102746 8.102746 8.102746 8.102746 8.025491 8.025491 8.025491 8.025491 8.025491 8.025491 7.948236 7.948236 7.948236 7.948236 7.948236 7.870981 7.870981 7.870981 7.870981 7.870981 7.870981 7.7937264 7.7937264 7.7937264 7.7937264 7.7937264 7.7937264 7.7937264 7.7937264 7.7937264 7.7937264 7.716471 7.716471 7.716471 7.716471 7.716471 7.716471 7.716471 7.639216 7.639216 7.639216 7.639216 7.639216 7.639216 7.639216 7.561961 7.561961 7.561961 7.561961 7.561961 7.561961 7.561961 7.561961 7.484706 7.484706 7.484706 7.484706 7.484706 7.484706 7.484706 7.484706 7.484706 7.484706 7.484706 7.484706 7.484706 7.484706 7.484706 7.484706 7.484706 7.484706 7.484706 7.407451 7.407451 7.407451 7.407451 7.407451 7.407451 7.407451 7.407451 7.407451 7.407451 7.407451 7.407451 7.407451 7.407451 7.407451 7.407451 7.407451 7.407451 7.3301964 7.3301964 7.3301964 7.3301964 7.3301964 7.3301964 7.3301964 7.3301964 7.3301964 7.3301964 7.252941 7.252941 7.252941 7.252941 7.252941 7.252941 7.252941 7.252941
4.9352946 4.9352946 4.9352946 4.9352946 4.9352946 4.9352946 5.0125494 5.0125494 5.0125494 5.0125494 5.0125494 5.0125494 5.0125494 5.089804 5.089804 5.089804 5.089804 5.089804 5.089804 5.089804 5.167059 5.167059 5.167059 5.167059 5.167059 5.167059 5.167059 5.167059 5.244314 5.244314 5.244314 5.244314 5.244314 5.244314 5.321569 5.321569 5.321569 5.321569 5.321569 5.321569 5.321569 5.3988237 5.3988237 5.3988237 5.3988237 5.3988237 5.3988237 5.4760785 5.4760785 5.4760785 5.4760785 5.5533338 5.5533338 5.5533338 5.6305885 5.6305885 5.6305885 5.6305885 5.7078433 5.7078433 5.785098 5.785098 5.785098 5.8623533 5.8623533 5.8623533 5.939608 5.939608 5.939608 6.016863 6.016863 6.016863 6.016863 6.094118 6.094118 6.094118 6.171373 6.171373 6.171373 6.2486277 6.2486277 6.3258824 6.3258824 6.4031377 6.4031377 6.4803925 6.4803925 6.557647 6.557647 6.557647 6.634902 6.634902 6.634902 6.7121572 6.7121572 6.7121572 6.789412 6.789412 6.789412 6.789412 6.866667 6.866667 6.9439216 6.9439216 6.9439216 6.9439216 7.021177 7.021177 7.021177 7.0984316 7.0984316 7.1756864 7.1756864 7.1756864 7.252941 7.252941 7.252941 7.3301964 7.3301964 7.3301964 7.407451 7.407451 7.407451 7.484706 7.484706 7.561961 7.561961 7.561961 7.639216 7.639216 7.716471 7.716471 7.7937264 7.7937264 7.7937264 7.870981 7.870981 7.948236 7.948236 8.025491 8.025491 8.025491 8.025491 8.025491 7.948236 7.948236 7.948236 7.948236 7.948236 7.948236 7.870981 7.870981 7.870981 7.870981 7.7937264 7.7937264 7.7937264 7.7937264 7.7937264 7.7937264 7.7937264 7.7937264 7.7937264 7.7937264 7.7937264 7.7937264 7.7937264 7.7937264 7.870981 7.870981 7.948236 7.948236 8.025491 8.025491 8.102746 8.102746 8.102746 8.102746 8.102746 8.102746 8.18 8.102746 8.102746 8.102746 8.102746 8.102746 8.102746 8.102746 8.102746 8.102746 8.102746 8.102746 8.102746 8.025491 8.025491 8.025491 8.025491 8.025491 8.025491 8.102746 8.102746 8.102746 8.18 8.18 8.95255 8.95255 8.95255 8.875295 8.875295 8.875295 8.875295 8.875295 8.875295 8.798039 8.798039 8.798039 8.798039 8.720785 8.720785 8.720785 8.720785 8.64353 8.64353 8.64353 8.64353 8.64353 8.566276 8.566276 8.566276 8.566276 8.48902 8.48902 8.48902 8.48902 8.411765 8.411765 8.411765 8.411765 8.411765 8.334511 8.334511 8.334511 8.334511 8.257256 8.257256 8.257256 8.257256 8.257256 8.18 8.18 8.18 8.18 8.18 8.102746 8.102746 8.102746 8.102746 8.025491 8.025491 8.025491 8.025491 8.025491 7.948236 7.948236 7.948236 7.948236 7.948236 7.870981 7.870981 7.870981 7.870981 7.870981 7.870981 7.7937264 7.7937264 7.7937264 7.7937264 7.7937264 7.7937264 7.716471 7.716471 7.716471 7.716471 7.716471 7.716471 7.716471 7.716471 7.716471 7.639216 7.639216 7.639216 7.639216 7.639216 7.639216 7.639216 7.639216 7.561961 7.561961 7.561961 7.561961 7.561961 7.561961 7.561961 7.561961 7.484706 7.484706 7.484706 7.484706 7.484706 7.484706 7.484706 7.484706 7.484706 7.407451 7.407451 7.407451 7.407451 7.407451 7.407451 7.407451 7.407451 7.407451 7.407451 7.407451 7.407451 7.407451 7.407451 7.407451 7.407451 7.407451 7.407451 7.407451 7.407451 7.407451 7.407451 7.407451 7.407451 7.407451 7.407451 7.407451 7.407451 7.407451 7.3301964 7.3301964 7.3301964 7.3301964 7.3301964 7.3301964 7.3301964 7.3301964 7.3301964 7.3301964 7.252941 7.252941 7.252941 7.252941 7.252941 7.252941 7.252941 7.252941 7.252941 7.252941 7.1756864 7.1756864
4.9352946 4.9352946 4.9352946 4.9352946 4.9352946 4.9352946 4.9352946 4.9352946 5.0125494 5.0125494 5.0125494 5.0125494 5.0125494 5.0125494 5.0125494 5.089804 5.089804 5.089804 5.089804 5.089804 5.089804 5.089804 5.167059 5.167059 5.167059 5.167059 5.167059 5.167059 5.167059 5.167059 5.244314 5.244314 5.244314 5.244314 5.244314 5.244314 5.321569 5.321569 5.321569 5.321569 5.321569 5.321569 5.321569 5.3988237 5.3988237 5.3988237 5.3988237 5.3988237 5.4760785 5.4760785 5.4760785 5.4760785 5.5533338 5.5533338 5.5533338 5.6305885 5.6305885 5.6305885 5.7078433 5.7078433 5.7078433 5.785098 5.785098 5.785098 5.8623533 5.8623533 5.8623533 5.939608 5.939608 5.939608 6.016863 6.016863 6.016863 6.016863 6.094118 6.094118 6.094118 6.171373 6.171373 6.171373 6.2486277 6.2486277 6.3258824 6.3258824 6.4031377 6.4031377 6.4803925 6.4803925 6.557647 6.557647 6.557647 6.634902 6.634902 6.634902 6.7121572 6.7121572 6.7121572 6.789412 6.789412 6.789412 6.789412 6.866667 6.866667 6.9439216 6.9439216 6.9439216 6.9439216 7.021177 7.021177 7.0984316 7.0984316 7.0984316 7.1756864 7.1756864 7.1756864 7.252941 7.252941 7.252941 7.3301964 7.3301964 7.3301964 7.407451 7.407451 7.484706 7.484706 7.484706 7.561961 7.561961 7.639216 7.639216 7.639216 7.716471 7.716471 7.7937264 7.7937264 7.7937264 7.870981 7.870981 7.948236 7.948236 7.948236 7.948236 7.948236 7.948236 7.948236 7.948236 7.948236 7.948236 7.870981 7.870981 7.870981 7.870981 7.870981 7.7937264 7.7937264 7.7937264 7.7937264 7.7937264 7.7937264 7.7937264 7.716471 7.716471 7.716471 7.716471 7.7937264 7.7937264 7.7937264 7.7937264 7.7937264 7.870981 7.870981 7.948236 7.948236 8.025491 8.025491 8.102746 8.102746 8.102746 8.102746 8.102746 8.102746 8.102746 8.102746 8.102746 8.102746 8.102746 8.102746 8.102746 8.102746 8.025491 8.025491 8.025491 8.025491 8.025491 8.025491 8.025491 8.025491 8.025491 8.025491 8.025491 8.025491 8.102746 8.102746 8.18 8.875295 8.875295 8.875295 8.875295 8.875295 8.875295 8.798039 8.798039 8.798039 8.798039 8.720785 8.720785 8.720785 8.720785 8.720785 8.64353 8.64353 8.64353 8.64353 8.566276 8.566276 8.566276 8.566276 8.566276 8.48902 8.48902 8.48902 8.48902 8.411765 8.411765 8.411765 8.411765 8.411765 8.334511 8.334511 8.334511 8.257256 8.257256 8.257256 8.257256 8.257256 8.18 8.18 8.18 8.18 8.18 8.102746 8.102746 8.102746 8.102746 8.025491 8.025491 8.025491 8.025491 8.025491 7.948236 7.948236 7.948236 7.948236 7.948236 7.870981 7.870981 7.870981 7.870981 7.870981 7.7937264 7.7937264 7.7937264 7.7937264 7.7937264 7.7937264 7.7937264 7.716471 7.716471 7.716471 7.716471 7.716471 7.639216 7.639216 7.639216 7.639216 7.639216 7.639216 7.639216 7.639216 7.639216 7.561961 7.561961 7.561961 7.561961 7.561961 7.561961 7.561961 7.561961 7.484706 7.484706 7.484706 7.484706 7.484706 7.484706 7.484706 7.484706 7.484706 7.407451 7.407451 7.407451 7.407451 7.407451 7.407451 7.407451 7.407451 7.407451 7.407451 7.3301964 7.3301964 7.3301964 7.3301964 7.3301964 7.3301964 7.3301964 7.3301964 7.3301964 7.3301964 7.3301964 7.3301964 7.3301964 7.3301964 7.3301964 7.3301964 7.3301964 7.3301964 7.3301964 7.3301964 7.3301964 7.3301964 7.3301964 7.3301964 7.3301964 7.3301964 7.3301964 7.3301964 7.3301964 7.3301964 7.252941 7.252941 7.252941 7.252941 7.252941 7.252941 7.252941 7.252941 7.252941 7.252941 7.252941 7.1756864 7.1756864 7.1756864 7.1756864 7.1756864 7.1756864
4.8580394 4.8580394 4.9352946 4.9352946 4.9352946 4.9352946 4.9352946 4.9352946 4.9352946 4.9352946 5.0125494 5.0125494 5.0125494 5.0125494 5.0125494 5.0125494 5.0125494 5.089804 5.089804 5.089804 5.089804 5.089804 5.089804 5.089804 5.167059 5.167059 5.167059 5.167059 5.167059 5.167059 5.167059 5.167059 5.244314 5.244314 5.244314 5.244314 5.244314 5.244314 5.321569 5.321569 5.321569 5.321569 5.321569 5.321569 5.321569 5.3988237 5.3988237 5.3988237 5.4760785 5.4760785 5.4760785 5.4760785 5.5533338 5.5533338 5.5533338 5.6305885 5.6305885 5.6305885 5.6305885 5.7078433 5.7078433 5.785098 5.785098 5.785098 5.785098 5.8623533 5.8623533 5.8623533 5.939608 5.939608 5.939608 6.016863 6.016863 6.016863 6.094118 6.094118 6.094118 6.094118 6.171373 6.171373 6.2486277 6.2486277 6.3258824 6.3258824 6.4031377 6.4031377 6.4803925 6.4803925 6.557647 6.557647 6.557647 6.557647 6.634902 6.634902 6.634902 6.7121572 6.7121572 6.7121572 6.789412 6.789412 6.789412 6.866667 6.866667 6.866667 6.9439216 6.9439216 6.9439216 7.021177 7.021177 7.021177 7.0984316 7.0984316 7.0984316 7.1756864 7.1756864 7.1756864 7.252941 7.252941 7.252941 7.3301964 7.3301964 7.3301964 7.407451 7.407451 7.484706 7.484706 7.484706 7.561961 7.561961 7.639216 7.639216 7.639216 7.716471 7.716471 7.7937264 7.7937264 7.7937264 7.870981 7.870981 7.948236 7.948236 7.948236 7.948236 7.948236 7.948236 7.948236 7.948236 7.870981 7.870981 7.870981 7.870981 7.7937264 7.7937264 7.7937264 7.7937264 7.7937264 7.7937264 7.7937264 7.716471 7.716471 7.716471 7.716471 7.716471 7.716471 7.716471 7.716471 7.7937264 7.7937264 7.7937264 7.7937264 7.870981 7.870981 7.948236 7.948236 8.025491 8.025491 8.102746 8.102746 8.102746 8.102746 8.102746 8.102746 8.102746 8.102746 8.102746 8.102746 8.102746 8.025491 8.025491 8.025491 8.025491 8.025491 8.025491 8.025491 8.025491 8.025491 8.025491 8.025491 8.025491 8.025491 8.025491 8.025491 8.102746 8.102746 8.18 8.875295 8.875295 8.798039 8.798039 8.798039 8.798039 8.798039 8.720785 8.720785 8.720785 8.720785 8.64353 8.64353 8.64353 8.64353 8.566276 8.566276 8.566276 8.566276 8.566276 8.48902 8.48902 8.48902 8.48902 8.48902 8.411765 8.411765 8.411765 8.411765 8.334511 8.334511 8.334511 8.334511 8.257256 8.257256 8.257256 8.257256 8.257256 8.18 8.18 8.18 8.18 8.102746 8.102746 8.102746 8.102746 8.102746 8.025491 8.025491 8.025491 8.025491 8.025491 7.948236 7.948236 7.948236 7.948236 7.870981 7.870981 7.870981 7.870981 7.870981 7.7937264 7.7937264 7.7937264 7.7937264 7.7937264 7.7937264 7.716471 7.716471 7.716471 7.716471 7.716471 7.716471 7.639216 7.639216 7.639216 7.639216 7.639216 7.639216 7.561961 7.561961 7.561961 7.561961 7.561961 7.561961 7.561961 7.561961 7.484706 7.484706 7.484706 7.484706 7.484706 7.484706 7.484706 7.484706 7.484706 7.407451 7.407451 7.407451 7.407451 7.407451 7.407451 7.407451 7.407451 7.407451 7.407451 7.3301964 7.3301964 7.3301964 7.3301964 7.3301964 7.3301964 7.3301964 7.3301964 7.3301964 7.3301964 7.252941 7.252941 7.252941 7.252941 7.252941 7.252941 7.252941 7.252941 7.252941 7.252941 7.252941 7.252941 7.252941 7.252941 7.252941 7.252941 7.252941 7.252941 7.252941 7.252941 7.252941 7.252941 7.252941 7.252941 7.252941 7.252941 7.252941 7.252941 7.252941 7.252941 7.252941 7.252941 7.252941 7.1756864 7.1756864 7.1756864 7.1756864 7.1756864 7.1756864 7.1756864 7.1756864 7.1756864 7.1756864
4.8580394 4.8580394 4.8580394 4.8580394 4.9352946 4.9352946 4.9352946 4.9352946 4.9352946 4.9352946 4.9352946 4.9352946 5.0125494 5.0125494 5.0125494 5.0125494 5.0125494 5.0125494 5.0125494 5.089804 5.089804 5.089804 5.089804 5.089804 5.089804 5.089804 5.167059 5.167059 5.167059 5.167059 5.167059 5.167059 5.167059 5.167059 5.244314 5.244314 5.244314 5.244314 5.244314 5.244314 5.321569 5.321569 5.321569 5.321569 5.321569 5.321569 5.3988237 5.3988237 5.3988237 5.4760785 5.4760785 5.4760785 5.4760785 5.5533338 5.5533338 5.5533338 5.6305885 5.6305885 5.6305885 5.7078433 5.7078433 5.7078433 5.785098 5.785098 5.785098 5.785098 5.8623533 5.8623533 5.8623533 5.939608 5.939608 5.939608 6.016863 6.016863 6.016863 6.094118 6.094118 6.094118 6.171373 6.171373 6.171373 6.2486277 6.2486277 6.3258824 6.3258824 6.4031377 6.4031377 6.4803925 6.4803925 6.557647 6.557647 6.557647 6.557647 6.634902 6.634902 6.634902 6.7121572 6.7121572 6.7121572 6.789412 6.789412 6.789412 6.866667 6.866667 6.866667 6.9439216 6.9439216 6.9439216 7.021177 7.021177 7.021177 7.0984316 7.0984316 7.0984316 7.1756864 7.1756864 7.1756864 7.252941 7.252941 7.252941 7.3301964 7.3301964 7.407451 7.407451 7.407451 7.484706 7.484706 7.484706 7.561961 7.561961 7.639216 7.639216 7.716471 7.716471 7.716471 7.7937264 7.7937264 7.870981 7.870981 7.870981 7.948236 7.948236 7.948236 7.948236 7.948236 7.870981 7.870981 7.870981 7.870981 7.870981 7.7937264 7.7937264 7.7937264 7.7937264 7.7937264 7.7937264 7.716471 7.716471 7.716471 7.716471 7.716471 7.716471 7.716471 7.716471 7.716471 7.716471 7.716471 7.7937264 7.7937264 7.7937264 7.7937264 7.870981 7.870981 7.948236 7.948236 8.025491 8.025491 8.102746 8.102746 8.102746 8.102746 8.102746 8.102746 8.102746 8.025491 8.025491 8.025491 8.025491 8.025491 8.025491 8.025491 8.025491 8.025491 8.025491 8.025491 8.025491 8.025491 8.025491 8.025491 8.025491 8.025491 8.025491 8.025491 8.102746 8.102746 8.798039 8.798039 8.798039 8.798039 8.720785 8.720785 8.720785 8.720785 8.64353 8.64353 8.64353 8.64353 8.64353 8.566276 8.566276 8.566276 8.566276 8.566276 8.48902 8.48902 8.48902 8.48902 8.411765 8.411765 8.411765 8.411765 8.334511 8.334511 8.334511 8.334511 8.257256 8.257256 8.257256 8.257256 8.257256 8.18 8.18 8.18 8.18 8.18 8.102746 8.102746 8.102746 8.102746 8.025491 8.025491 8.025491 8.025491 8.025491 7.948236 7.948236 7.948236 7.948236 7.948236 7.870981 7.870981 7.870981 7.870981 7.7937264 7.7937264 7.7937264 7.7937264 7.7937264 7.7937264 7.716471 7.716471 7.716471 7.716471 7.716471 7.639216 7.639216 7.639216 7.639216 7.639216 7.639216 7.561961 7.561961 7.561961 7.561961 7.561961 7.561961 7.484706 7.484706 7.484706 7.484706 7.484706 7.484706 7.484706 7.484706 7.407451 7.407451 7.407451 7.407451 7.407451 7.407451 7.407451 7.407451 7.407451 7.407451 7.3301964 7.3301964 7.3301964 7.3301964 7.3301964 7.3301964 7.3301964 7.3301964 7.3301964 7.3301964 7.3301964 7.252941 7.252941 7.252941 7.252941 7.252941 7.252941 7.252941 7.252941 7.252941 7.252941 7.1756864 7.1756864 7.1756864 7.1756864 7.1756864 7.1756864 7.1756864 7.1756864 7.1756864 7.1756864 7.252941 7.252941 7.252941 7.252941 7.252941 7.252941 7.252941 7.252941 7.252941 7.252941 7.252941 7.252941 7.252941 7.252941 7.252941 7.1756864 7.1756864 7.1756864 7.1756864 7.1756864 7.1756864 7.1756864 7.1756864 7.1756864 7.1756864 7.1756864 7.0984316 7.0984316 7.0984316
4.8580394 4.8580394 4.8580394 4.8580394 4.8580394 4.8580394 4.9352946 4.9352946 4.9352946 4.9352946 4.9352946 4.9352946 4.9352946 4.9352946 5.0125494 5.0125494 5.0125494 5.0125494 5.0125494 5.0125494 5.0125494 5.089804 5.089804 5.089804 5.089804 5.089804 5.089804 5.089804 5.167059 5.167059 5.167059 5.167059 5.167059 5.167059 5.167059 5.167059 5.244314 5.244314 5.244314 5.244314 5.244314 5.244314 5.321569 5.321569 5.321569 5.321569 5.3988237 5.3988237 5.3988237 5.4760785 5.4760785 5.4760785 5.4760785 5.5533338 5.5533338 5.5533338 5.6305885 5.6305885 5.6305885 5.6305885 5.7078433 5.7078433 5.7078433 5.785098 5.785098 5.785098 5.785098 5.8623533 5.8623533 5.8623533 5.939608 5.939608 5.939608 6.016863 6.016863 6.016863 6.094118 6.094118 6.094118 6.171373 6.171373 6.2486277 6.2486277 6.3258824 6.3258824 6.4031377 6.4031377 6.4803925 6.4803925 6.557647 6.557647 6.557647 6.557647 6.634902 6.634902 6.634902 6.7121572 6.7121572 6.7121572 6.789412 6.789412 6.789412 6.789412 6.866667 6.866667 6.866667 6.9439216 6.9439216 6.9439216 7.021177 7.021177 7.021177 7.0984316 7.0984316 7.0984316 7.1756864 7.1756864 7.1756864 7.252941 7.252941 7.3301964 7.3301964 7.3301964 7.407451 7.407451 7.407451 7.484706 7.484706 7.561961 7.561961 7.561961 7.639216 7.639216 7.716471 7.716471 7.716471 7.7937264 7.7937264 7.870981 7.870981 7.870981 7.948236 7.870981 7.870981 7.870981 7.870981 7.870981 7.870981 7.7937264 7.7937264 7.7937264 7.7937264 7.7937264 7.7937264 7.716471 7.716471 7.716471 7.716471 7.716471 7.716471 7.716471 7.716471 7.716471 7.716471 7.716471 7.716471 7.716471 7.716471 7.716471 7.7937264 7.7937264 7.7937264 7.870981 7.870981 7.948236 8.025491 8.025491 8.025491 8.025491 8.025491 8.025491 8.025491 8.025491 8.025491 8.025491 8.025491 8.025491 8.025491 8.025491 8.025491 8.025491 8.025491 8.025491 8.025491 8.025491 8.025491 8.025491 8.025491 8.025491 8.025491 8.025491 8.025491 8.025491 8.025491 8.102746 8.720785 8.720785 8.720785 8.720785 8.720785 8.720785 8.64353 8.64353 8.64353 8.64353 8.566276 8.566276 8.566276 8.566276 8.566276 8.48902 8.48902 8.48902 8.48902 8.48902 8.411765 8.411765 8.411765 8.411765 8.334511 8.334511 8.334511 8.334511 8.257256 8.257256 8.257256 8.257256 8.18 8.18 8.18 8.18 8.18 8.102746 8.102746 8.102746 8.102746 8.102746 8.025491 8.025491 8.025491 8.025491 8.025491 7.948236 7.948236 7.948236 7.948236 7.870981 7.870981 7.870981 7.870981 7.870981 7.7937264 7.7937264 7.7937264 7.7937264 7.7937264 7.716471 7.716471 7.716471 7.716471 7.716471 7.639216 7.639216 7.639216 7.639216 7.639216 7.639216 7.561961 7.561961 7.561961 7.561961 7.561961 7.561961 7.484706 7.484706 7.484706 7.484706 7.484706 7.484706 7.407451 7.407451 7.407451 7.407451 7.407451 7.407451 7.407451 7.407451 7.3301964 7.3301964 7.3301964 7.3301964 7.3301964 7.3301964 7.3301964 7.3301964 7.3301964 7.3301964 7.3301964 7.252941 7.252941 7.252941 7.252941 7.252941 7.252941 7.252941 7.252941 7.252941 7.252941 7.252941 7.252941 7.1756864 7.1756864 7.1756864 7.1756864 7.1756864 7.1756864 7.1756864 7.1756864 7.1756864 7.1756864 7.1756864 7.1756864 7.1756864 7.1756864 7.1756864 7.1756864 7.1756864 7.1756864 7.1756864 7.1756864 7.1756864 7.1756864 7.1756864 7.1756864 7.1756864 7.1756864 7.1756864 7.1756864 7.1756864 7.1756864 7.1756864 7.1756864 7.1756864 7.1756864 7.1756864 7.1756864 7.1756864 7.0984316 7.0984316 7.0984316 7.0984316 7.0984316 7.0984316 7.0984316
4.8580394 4.8580394 4.8580394 4.8580394 4.8580394 4.8580394 4.8580394 4.8580394 4.9352946 4.9352946 4.9352946 4.9352946 4.9352946 4.9352946 4.9352946 4.9352946 5.0125494 5.0125494 5.0125494 5.0125494 5.0125494 5.0125494 5.0125494 5.089804 5.089804 5.089804 5.089804 5.089804 5.089804 5.089804 5.167059 5.167059 5.167059 5.167059 5.167059 5.167059 5.167059 5.167059 5.244314 5.244314 5.244314 5.244314 5.244314 5.321569 5.321569 5.321569 5.321569 5.3988237 5.3988237 5.3988237 5.4760785 5.4760785 5.4760785 5.4760785 5.5533338 5.5533338 5.5533338 5.6305885 5.6305885 5.6305885 5.6305885 5.7078433 5.7078433 5.7078433 5.785098 5.785098 5.785098 5.8623533 5.8623533 5.8623533 5.8623533 5.939608 5.939608 5.939608 6.016863 6.016863 6.016863 6.094118 6.094118 6.171373 6.171373 6.171373 6.2486277 6.2486277 6.3258824 6.3258824 6.4031377 6.4031377 6.4803925 6.4803925 6.557647 6.557647 6.557647 6.557647 6.634902 6.634902 6.634902 6.7121572 6.7121572 6.7121572 6.789412 6.789412 6.789412 6.789412 6.866667 6.866667 6.9439216 6.9439216 6.9439216 6.9439216 7.021177 7.021177 7.021177 7.0984316 7.0984316 7.1756864 7.1756864 7.1756864 7.252941 7.252941 7.252941 7.3301964 7.3301964 7.3301964 7.407451 7.407451 7.407451 7.484706 7.484706 7.561961 7.561961 7.561961 7.639216 7.639216 7.716471 7.716471 7.7937264 7.7937264 7.7937264 7.870981 7.870981 7.870981 7.870981 7.870981 7.870981 7.870981 7.870981 7.7937264 7.7937264 7.7937264 7.7937264 7.7937264 7.7937264 7.716471 7.716471 7.716471 7.716471 7.716471 7.716471 7.716471 7.639216 7.639216 7.639216 7.639216 7.639216 7.716471 7.716471 7.716471 7.716471 7.716471 7.7937264 7.7937264 7.7937264 7.870981 7.948236 7.948236 8.025491 8.025491 8.025491 8.025491 8.025491 8.025491 8.025491 8.025491 8.025491 8.025491 8.025491 8.025491 8.025491 8.025491 8.025491 8.025491 8.025491 7.948236 7.948236 7.948236 7.948236 7.948236 7.948236 7.948236 7.948236 8.025491 8.025491 8.025491 8.025491 8.720785 8.720785 8.720785 8.64353 8.64353 8.64353 8.64353 8.64353 8.566276 8.566276 8.566276 8.566276 8.48902 8.48902 8.48902 8.48902 8.48902 8.411765 8.411765 8.411765 8.411765 8.411765 8.334511 8.334511 8.334511 8.334511 8.257256 8.257256 8.257256 8.257256 8.18 8.18 8.18 8.18 8.18 8.102746 8.102746 8.102746 8.102746 8.025491 8.025491 8.025491 8.025491 8.025491 7.948236 7.948236 7.948236 7.948236 7.948236 7.870981 7.870981 7.870981 7.870981 7.7937264 7.7937264 7.7937264 7.7937264 7.7937264 7.7937264 7.716471 7.716471 7.716471 7.716471 7.716471 7.639216 7.639216 7.639216 7.639216 7.639216 7.561961 7.561961 7.561961 7.561961 7.561961 7.561961 7.484706 7.484706 7.484706 7.484706 7.484706 7.484706 7.407451 7.407451 7.407451 7.407451 7.407451 7.407451 7.3301964 7.3301964 7.3301964 7.3301964 7.3301964 7.3301964 7.3301964 7.3301964 7.3301964 7.252941 7.252941 7.252941 7.252941 7.252941 7.252941 7.252941 7.252941 7.252941 7.252941 7.252941 7.1756864 7.1756864 7.1756864 7.1756864 7.1756864 7.1756864 7.1756864 7.1756864 7.1756864 7.1756864 7.1756864 7.1756864 7.0984316 7.0984316 7.0984316 7.0984316 7.0984316 7.0984316 7.0984316 7.0984316 7.0984316 7.0984316 7.0984316 7.0984316 7.0984316 7.0984316 7.0984316 7.0984316 7.0984316 7.0984316 7.0984316 7.0984316 7.0984316 7.0984316 7.0984316 7.0984316 7.0984316 7.0984316 7.0984316 7.0984316 7.0984316 7.0984316 7.0984316 7.0984316 7.0984316 7.0984316 7.0984316 7.0984316 7.0984316 7.0984316 7.0984316 7.021177
4.7807846 4.7807846 4.8580394 4.8580394 4.8580394 4.8580394 4.8580394 4.8580394 4.8580394 4.8580394 4.9352946 4.9352946 4.9352946 4.9352946 4.9352946 4.9352946 4.9352946 4.9352946 5.0125494 5.0125494 5.0125494 5.0125494 5.0125494 5.0125494 5.0125494 5.089804 5.089804 5.089804 5.089804 5.089804 5.089804 5.089804 5.167059 5.167059 5.167059 5.167059 5.167059 5.167059 5.167059 5.167059 5.244314 5.244314 5.244314 5.321569 5.321569 5.321569 5.321569 5.3988237 5.3988237 5.3988237 5.4760785 5.4760785 5.4760785 5.4760785 5.5533338 5.5533338 5.5533338 5.6305885 5.6305885 5.6305885 5.6305885 5.7078433 5.7078433 5.7078433 5.785098 5.785098 5.785098 5.785098 5.8623533 5.8623533 5.8623533 5.939608 5.939608 5.939608 6.016863 6.016863 6.016863 6.016863 6.094118 6.094118 6.171373 6.171373 6.2486277 6.2486277 6.3258824 6.3258824 6.4031377 6.4031377 6.4803925 6.4803925 6.4803925 6.557647 6.557647 6.557647 6.557647 6.634902 6.634902 6.634902 6.7121572 6.7121572 6.7121572 6.789412 6.789412 6.789412 6.789412 6.866667 6.866667 6.9439216 6.9439216 6.9439216 6.9439216 7.021177 7.021177 7.0984316 7.0984316 7.0984316 7.1756864 7.1756864 7.1756864 7.252941 7.252941 7.252941 7.3301964 7.3301964 7.3301964 7.407451 7.407451 7.484706 7.484706 7.484706 7.561961 7.561961 7.639216 7.639216 7.639216 7.716471 7.716471 7.7937264 7.7937264 7.7937264 7.870981 7.870981 7.870981 7.870981 7.870981 7.7937264 7.7937264 7.7937264 7.7937264 7.7937264 7.7937264 7.7937264 7.716471 7.716471 7.716471 7.716471 7.716471 7.716471 7.639216 7.639216 7.639216 7.639216 7.639216 7.639216 7.639216 7.639216 7.716471 7.716471 7.716471 7.716471 7.716471 7.7937264 7.7937264 7.870981 7.870981 7.948236 7.948236 8.025491 8.025491 8.025491 8.025491 8.025491 8.025491 8.025491 8.025491 8.025491 8.025491 8.025491 8.025491 8.025491 8.025491 7.948236 7.948236 7.948236 7.948236 7.948236 7.948236 7.948236 7.948236 7.948236 7.948236 7.948236 8.025491 8.025491 8.025491 8.102746 8.64353 8.64353 8.64353 8.64353 8.64353 8.566276 8.566276 8.566276 8.566276 8.48902 8.48902 8.48902 8.48902 8.48902 8.411765 8.411765 8.411765 8.411765 8.334511 8.334511 8.334511 8.334511 8.257256 8.257256 8.257256 8.257256 8.257256 8.18 8.18 8.18 8.18 8.18 8.102746 8.102746 8.102746 8.102746 8.025491 8.025491 8.025491 8.025491 8.025491 7.948236 7.948236 7.948236 7.948236 7.870981 7.870981 7.870981 7.870981 7.870981 7.7937264 7.7937264 7.7937264 7.7937264 7.7937264 7.716471 7.716471 7.716471 7.716471 7.716471 7.639216 7.639216 7.639216 7.639216 7.639216 7.561961 7.561961 7.561961 7.561961 7.561961 7.561961 7.484706 7.484706 7.484706 7.484706 7.484706 7.484706 7.407451 7.407451 7.407451 7.407451 7.407451 7.407451 7.3301964 7.3301964 7.3301964 7.3301964 7.3301964 7.3301964 7.3301964 7.252941 7.252941 7.252941 7.252941 7.252941 7.252941 7.252941 7.252941 7.1756864 7.1756864 7.1756864 7.1756864 7.1756864 7.1756864 7.1756864 7.1756864 7.1756864 7.1756864 7.1756864 7.1756864 7.1756864 7.0984316 7.0984316 7.0984316 7.0984316 7.0984316 7.0984316 7.0984316 7.0984316 7.0984316 7.0984316 7.0984316 7.0984316 7.021177 7.021177 7.021177 7.021177 7.021177 7.021177 7.021177 7.021177 7.021177 7.021177 7.021177 7.021177 7.021177 7.021177 7.021177 7.021177 7.021177 7.021177 7.021177 7.021177 7.021177 7.021177 7.021177 7.0984316 7.0984316 7.0984316 7.021177 7.021177 7.021177 7.021177 7.021177 7.021177 7.021177 7.021177 7.021177
4.7807846 4.7807846 4.7807846 4.7807846 4.8580394 4.8580394 4.8580394 4.8580394 4.8580394 4.8580394 4.8580394 4.8580394 4.8580394 4.9352946 4.9352946 4.9352946 4.9352946 4.9352946 4.9352946 4.9352946 5.0125494 5.0125494 5.0125494 5.0125494 5.0125494 5.0125494 5.0125494 5.089804 5.089804 5.089804 5.089804 5.089804 5.089804 5.089804 5.167059 5.167059 5.167059 5.167059 5.167059 5.167059 5.167059 5.244314 5.244314 5.244314 5.321569 5.321569 5.321569 5.321569 5.3988237 5.3988237 5.3988237 5.4760785 5.4760785 5.4760785 5.4760785 5.5533338 5.5533338 5.5533338 5.6305885 5.6305885 5.6305885 5.6305885 5.7078433 5.7078433 5.7078433 5.785098 5.785098 5.785098 5.785098 5.8623533 5.8623533 5.8623533 5.939608 5.939608 5.939608 6.016863 6.016863 6.016863 6.094118 6.094118 6.171373 6.171373 6.171373 6.2486277 6.2486277 6.3258824 6.3258824 6.4031377 6.4031377 6.4803925 6.4803925 6.4803925 6.557647 6.557647 6.557647 6.557647 6.634902 6.634902 6.634902 6.7121572 6.7121572 6.7121572 6.789412 6.789412 6.789412 6.866667 6.866667 6.866667 6.9439216 6.9439216 6.9439216 7.021177 7.021177 7.021177 7.0984316 7.0984316 7.0984316 7.1756864 7.1756864 7.1756864 7.252941 7.252941 7.252941 7.3301964 7.3301964 7.3301964 7.407451 7.407451 7.484706 7.484706 7.484706 7.561961 7.561961 7.639216 7.639216 7.639216 7.716471 7.716471 7.7937264 7.7937264 7.7937264 7.870981 7.870981 7.870981 7.7937264 7.7937264 7.7937264 7.7937264 7.7937264 7.7937264 7.716471 7.716471 7.716471 7.716471 7.716471 7.639216 7.639216 7.639216 7.639216 7.639216 7.639216 7.639216 7.639216 7.639216 7.639216 7.639216 7.639216 7.639216 7.716471 7.716471 7.716471 7.716471 7.7937264 7.7937264 7.870981 7.870981 7.948236 7.948236 8.025491 8.025491 8.025491 8.025491 8.025491 8.025491 8.025491 8.025491 8.025491 8.025491 8.025491 7.948236 7.948236 7.948236 7.948236 7.948236 7.948236 7.948236 7.948236 7.948236 7.948236 7.948236 7.948236 7.948236 7.948236 8.025491 8.025491 8.102746 8.64353 8.566276 8.566276 8.566276 8.566276 8.566276 8.566276 8.48902 8.48902 8.48902 8.48902 8.48902 8.411765 8.411765 8.411765 8.411765 8.334511 8.334511 8.334511 8.334511 8.257256 8.257256 8.257256 8.257256 8.257256 8.18 8.18 8.18 8.18 8.18 8.102746 8.102746 8.102746 8.102746 8.025491 8.025491 8.025491 8.025491 8.025491 7.948236 7.948236 7.948236 7.948236 7.870981 7.870981 7.870981 7.870981 7.870981 7.7937264 7.7937264 7.7937264 7.7937264 7.7937264 7.716471 7.716471 7.716471 7.716471 7.716471 7.639216 7.639216 7.639216 7.639216 7.639216 7.561961 7.561961 7.561961 7.561961 7.561961 7.484706 7.484706 7.484706 7.484706 7.484706 7.484706 7.407451 7.407451 7.407451 7.407451 7.407451 7.407451 7.3301964 7.3301964 7.3301964 7.3301964 7.3301964 7.3301964 7.3301964 7.252941 7.252941 7.252941 7.252941 7.252941 7.252941 7.252941 7.1756864 7.1756864 7.1756864 7.1756864 7.1756864 7.1756864 7.1756864 7.1756864 7.0984316 7.0984316 7.0984316 7.0984316 7.0984316 7.0984316 7.0984316 7.0984316 7.0984316 7.0984316 7.0984316 7.0984316 7.0984316 7.0984316 7.021177 7.021177 7.021177 7.021177 7.021177 7.021177 7.021177 7.021177 7.021177 7.021177 7.021177 6.9439216 6.9439216 6.9439216 6.9439216 6.9439216 6.9439216 6.9439216 6.9439216 6.9439216 6.9439216 6.9439216 6.9439216 6.9439216 6.9439216 6.9439216 6.9439216 6.9439216 7.021177 7.021177 7.021177 7.021177 7.021177 7.021177 7.021177 7.021177 7.021177 7.021177 7.021177 7.021177 7.021177 6.9439216
4.7807846 4.7807846 4.7807846 4.7807846 4.7807846 4.7807846 4.8580394 4.8580394 4.8580394 4.8580394 4.8580394 4.8580394 4.8580394 4.8580394 4.8580394 4.9352946 4.9352946 4.9352946 4.9352946 4.9352946 4.9352946 4.9352946 5.0125494 5.0125494 5.0125494 5.0125494 5.0125494 5.0125494 5.0125494 5.089804 5.089804 5.089804 5.089804 5.089804 5.089804 5.089804 5.167059 5.167059 5.167059 5.167059 5.167059 5.244314 5.244314 5.244314 5.321569 5.321569 5.321569 5.321569 5.3988237 5.3988237 5.3988237 5.4760785 5.4760785 5.4760785 5.4760785 5.4760785 5.5533338 5.5533338 5.5533338 5.6305885 5.6305885 5.6305885 5.6305885 5.7078433 5.7078433 5.7078433 5.785098 5.785098 5.785098 5.785098 5.8623533 5.8623533 5.8623533 5.939608 5.939608 5.939608 6.016863 6.016863 6.016863 6.094118 6.094118 6.171373 6.171373 6.2486277 6.2486277 6.3258824 6.3258824 6.4031377 6.4031377 6.4803925 6.4803925 6.4803925 6.4803925 6.557647 6.557647 6.557647 6.557647 6.634902 6.634902 6.634902 6.7121572 6.7121572 6.7121572 6.789412 6.789412 6.789412 6.866667 6.866667 6.866667 6.9439216 6.9439216 6.9439216 7.021177 7.021177 7.021177 7.0984316 7.0984316 7.0984316 7.1756864 7.1756864 7.1756864 7.252941 7.252941 7.252941 7.3301964 7.3301964 7.407451 7.407451 7.407451 7.484706 7.484706 7.484706 7.561961 7.561961 7.639216 7.639216 7.716471 7.716471 7.716471 7.7937264 7.7937264 7.7937264 7.7937264 7.7937264 7.7937264 7.7937264 7.7937264 7.7937264 7.7937264 7.716471 7.716471 7.716471 7.716471 7.716471 7.639216 7.639216 7.639216 7.639216 7.639216 7.639216 7.639216 7.639216 7.639216 7.639216 7.639216 7.639216 7.639216 7.639216 7.639216 7.716471 7.716471 7.716471 7.716471 7.7937264 7.7937264 7.870981 7.870981 7.948236 7.948236 8.025491 8.025491 8.025491 8.025491 8.025491 8.025491 8.025491 8.025491 7.948236 7.948236 7.948236 7.948236 7.948236 7.948236 7.948236 7.948236 7.948236 7.948236 7.948236 7.948236 7.948236 7.948236 7.948236 7.948236 7.948236 8.025491 8.025491 8.566276 8.566276 8.566276 8.566276 8.566276 8.48902 8.48902 8.48902 8.48902 8.48902 8.411765 8.411765 8.411765 8.411765 8.334511 8.334511 8.334511 8.334511 8.257256 8.257256 8.257256 8.257256 8.257256 8.18 8.18 8.18 8.18 8.18 8.102746 8.102746 8.102746 8.102746 8.025491 8.025491 8.025491 8.025491 8.025491 7.948236 7.948236 7.948236 7.948236 7.870981 7.870981 7.870981 7.870981 7.870981 7.7937264 7.7937264 7.7937264 7.7937264 7.7937264 7.716471 7.716471 7.716471 7.716471 7.716471 7.639216 7.639216 7.639216 7.639216 7.639216 7.561961 7.561961 7.561961 7.561961 7.561961 7.484706 7.484706 7.484706 7.484706 7.484706 7.407451 7.407451 7.407451 7.407451 7.407451 7.407451 7.3301964 7.3301964 7.3301964 7.3301964 7.3301964 7.3301964 7.3301964 7.252941 7.252941 7.252941 7.252941 7.252941 7.252941 7.252941 7.1756864 7.1756864 7.1756864 7.1756864 7.1756864 7.1756864 7.1756864 7.1756864 7.0984316 7.0984316 7.0984316 7.0984316 7.0984316 7.0984316 7.0984316 7.0984316 7.021177 7.021177 7.021177 7.021177 7.021177 7.021177 7.021177 7.021177 7.021177 7.021177 7.021177 7.021177 7.021177 7.021177 7.021177 6.9439216 6.9439216 6.9439216 6.9439216 6.9439216 6.9439216 6.9439216 6.9439216 6.9439216 6.9439216 6.9439216 6.866667 6.866667 6.9439216 6.9439216 6.9439216 6.9439216 6.9439216 6.9439216 6.9439216 6.9439216 6.9439216 6.9439216 6.9439216 6.9439216 6.9439216 6.9439216 6.9439216 6.9439216 6.9439216 6.9439216 6.9439216 6.9439216 6.9439216 6.9439216 6.9439216
4.7807846 4.7807846 4.7807846 4.7807846 4.7807846 4.7807846 4.7807846 4.7807846 4.7807846 4.8580394 4.8580394 4.8580394 4.8580394 4.8580394 4.8580394 4.8580394 4.8580394 4.9352946 4.9352946 4.9352946 4.9352946 4.9352946 4.9352946 4.9352946 5.0125494 5.0125494 5.0125494 5.0125494 5.0125494 5.0125494 5.0125494 5.089804 5.089804 5.089804 5.089804 5.089804 5.089804 5.167059 5.167059 5.167059 5.167059 5.167059 5.244314 5.244314 5.244314 5.321569 5.321569 5.321569 5.321569 5.3988237 5.3988237 5.3988237 5.4760785 5.4760785 5.4760785 5.4760785 5.4760785 5.5533338 5.5533338 5.5533338 5.6305885 5.6305885 5.6305885 5.6305885 5.7078433 5.7078433 5.7078433 5.785098 5.785098 5.785098 5.785098 5.8623533 5.8623533 5.8623533 5.939608 5.939608 5.939608 6.016863 6.016863 6.094118 6.094118 6.171373 6.171373 6.171373 6.2486277 6.2486277 6.3258824 6.3258824 6.4031377 6.4031377 6.4803925 6.4803925 6.4803925 6.4803925 6.557647 6.557647 6.557647 6.634902 6.634902 6.634902 6.634902 6.7121572 6.7121572 6.789412 6.789412 6.789412 6.789412 6.866667 6.866667 6.866667 6.9439216 6.9439216 6.9439216 7.021177 7.021177 7.021177 7.0984316 7.0984316 7.0984316 7.1756864 7.1756864 7.1756864 7.252941 7.252941 7.3301964 7.3301964 7.3301964 7.407451 7.407451 7.407451 7.484706 7.484706 7.561961 7.561961 7.561961 7.639216 7.639216 7.716471 7.716471 7.716471 7.7937264 7.7937264 7.7937264 7.7937264 7.7937264 7.7937264 7.7937264 7.7937264 7.716471 7.716471 7.716471 7.716471 7.716471 7.639216 7.639216 7.639216 7.639216 7.639216 7.639216 7.639216 7.639216 7.639216 7.639216 7.639216 7.639216 7.639216 7.639216 7.639216 7.639216 7.639216 7.639216 7.716471 7.716471 7.7937264 7.7937264 7.7937264 7.870981 7.870981 7.948236 7.948236 7.948236 7.948236 8.025491 8.025491 8.025491 8.025491 7.948236 7.948236 7.948236 7.948236 7.948236 7.948236 7.948236 7.948236 7.948236 7.948236 7.948236 7.948236 7.948236 7.948236 7.948236 7.948236 7.948236 7.948236 7.948236 8.025491 8.566276 8.48902 8.48902 8.48902 8.48902 8.48902 8.48902 8.48902 8.411765 8.411765 8.411765 8.411765 8.334511 8.334511 8.334511 8.334511 8.257256 8.257256 8.257256 8.257256 8.257256 8.18 8.18 8.18 8.18 8.18 8.102746 8.102746 8.102746 8.102746 8.025491 8.025491 8.025491 8.025491 8.025491 7.948236 7.948236 7.948236 7.948236 7.870981 7.870981 7.870981 7.870981 7.7937264 7.7937264 7.7937264 7.7937264 7.7937264 7.7937264 7.716471 7.716471 7.716471 7.716471 7.716471 7.639216 7.639216 7.639216 7.639216 7.639216 7.561961 7.561961 7.561961 7.561961 7.561961 7.484706 7.484706 7.484706 7.484706 7.484706 7.407451 7.407451 7.407451 7.407451 7.407451 7.407451 7.3301964 7.3301964 7.3301964 7.3301964 7.3301964 7.3301964 7.252941 7.252941 7.252941 7.252941 7.252941 7.252941 7.252941 7.1756864 7.1756864 7.1756864 7.1756864 7.1756864 7.1756864 7.1756864 7.0984316 7.0984316 7.0984316 7.0984316 7.0984316 7.0984316 7.0984316 7.0984316 7.021177 7.021177 7.021177 7.021177 7.021177 7.021177 7.021177 7.021177 6.9439216 6.9439216 6.9439216 6.9439216 6.9439216 6.9439216 6.9439216 6.9439216 6.9439216 6.9439216 6.9439216 6.9439216 6.9439216 6.9439216 6.9439216 6.9439216 6.9439216 6.866667 6.866667 6.866667 6.866667 6.866667 6.866667 6.866667 6.866667 6.866667 6.866667 6.866667 6.866667 6.866667 6.866667 6.866667 6.866667 6.866667 6.866667 6.866667 6.866667 6.866667 6.866667 6.866667 6.866667 6.866667 6.866667 6.866667 6.9439216 6.9439216 6.866667
4.70353 4.70353 4.7807846 4.7807846 4.7807846 4.7807846 4.7807846 4.7807846 4.7807846 4.7807846 4.7807846 4.8580394 4.8580394 4.8580394 4.8580394 4.8580394 4.8580394 4.8580394 4.8580394 4.9352946 4.9352946 4.9352946 4.9352946 4.9352946 4.9352946 4.9352946 5.0125494 5.0125494 5.0125494 5.0125494 5.0125494 5.0125494 5.0125494 5.0125494 5.089804 5.089804 5.089804 5.089804 5.167059 5.167059 5.167059 5.167059 5.244314 5.244314 5.244314 5.321569 5.321569 5.321569 5.321569 5.3988237 5.3988237 5.3988237 5.3988237 5.4760785 5.4760785 5.4760785 5.4760785 5.5533338 5.5533338 5.5533338 5.5533338 5.6305885 5.6305885 5.6305885 5.6305885 5.7078433 5.7078433 5.7078433 5.785098 5.785098 5.785098 5.8623533 5.8623533 5.8623533 5.8623533 5.939608 5.939608 6.016863 6.016863 6.016863 6.094118 6.094118 6.171373 6.171373 6.2486277 6.2486277 6.3258824 6.3258824 6.4031377 6.4031377 6.4031377 6.4803925 6.4803925 6.4803925 6.557647 6.557647 6.557647 6.557647 6.634902 6.634902 6.634902 6.7121572 6.7121572 6.7121572 6.789412 6.789412 6.789412 6.789412 6.866667 6.866667 6.866667 6.9439216 6.9439216 6.9439216 7.021177 7.021177 7.021177 7.0984316 7.0984316 7.1756864 7.1756864 7.1756864 7.252941 7.252941 7.252941 7.3301964 7.3301964 7.3301964 7.407451 7.407451 7.407451 7.484706 7.484706 7.561961 7.561961 7.561961 7.639216 7.639216 7.716471 7.716471 7.7937264 7.7937264 7.7937264 7.7937264 7.7937264 7.7937264 7.716471 7.716471 7.716471 7.716471 7.716471 7.639216 7.639216 7.639216 7.639216 7.639216 7.639216 7.639216 7.639216 7.639216 7.639216 7.561961 7.561961 7.639216 7.639216 7.639216 7.639216 7.639216 7.639216 7.639216 7.639216 7.639216 7.716471 7.716471 7.7937264 7.7937264 7.7937264 7.870981 7.948236 7.948236 7.948236 7.948236 7.948236 7.948236 7.948236 7.948236 7.948236 7.948236 7.948236 7.948236 7.948236 7.948236 7.948236 7.948236 7.948236 7.948236 7.948236 7.948236 7.948236 7.870981 7.870981 7.948236 7.948236 7.948236 7.948236 8.025491 8.48902 8.48902 8.48902 8.48902 8.48902 8.411765 8.411765 8.411765 8.411765 8.411765 8.334511 8.334511 8.334511 8.334511 8.257256 8.257256 8.257256 8.257256 8.257256 8.18 8.18 8.18 8.18 8.18 8.102746 8.102746 8.102746 8.102746 8.025491 8.025491 8.025491 8.025491 8.025491 7.948236 7.948236 7.948236 7.948236 7.870981 7.870981 7.870981 7.870981 7.870981 7.7937264 7.7937264 7.7937264 7.7937264 7.7937264 7.716471 7.716471 7.716471 7.716471 7.716471 7.639216 7.639216 7.639216 7.639216 7.639216 7.561961 7.561961 7.561961 7.561961 7.561961 7.484706 7.484706 7.484706 7.484706 7.484706 7.407451 7.407451 7.407451 7.407451 7.407451 7.407451 7.3301964 7.3301964 7.3301964 7.3301964 7.3301964 7.252941 7.252941 7.252941 7.252941 7.252941 7.252941 7.252941 7.1756864 7.1756864 7.1756864 7.1756864 7.1756864 7.1756864 7.1756864 7.0984316 7.0984316 7.0984316 7.0984316 7.0984316 7.0984316 7.0984316 7.021177 7.021177 7.021177 7.021177 7.021177 7.021177 7.021177 7.021177 6.9439216 6.9439216 6.9439216 6.9439216 6.9439216 6.9439216 6.9439216 6.9439216 6.9439216 6.9439216 6.9439216 6.866667 6.866667 6.866667 6.866667 6.866667 6.866667 6.866667 6.866667 6.866667 6.866667 6.866667 6.866667 6.866667 6.866667 6.789412 6.789412 6.789412 6.789412 6.789412 6.789412 6.789412 6.789412 6.789412 6.789412 6.789412 6.789412 6.789412 6.789412 6.789412 6.789412 6.789412 6.789412 6.789412 6.789412 6.789412 6.789412 6.789412 6.866667 6.866667 6.866667
4.70353 4.70353 4.70353 4.70353 4.7807846 4.7807846 4.7807846 4.7807846 4.7807846 4.7807846 4.7807846 4.7807846 4.7807846 4.8580394 4.8580394 4.8580394 4.8580394 4.8580394 4.8580394 4.8580394 4.8580394 4.9352946 4.9352946 4.9352946 4.9352946 4.9352946 4.9352946 4.9352946 5.0125494 5.0125494 5.0125494 5.0125494 5.0125494 5.0125494 5.0125494 5.089804 5.089804 5.089804 5.167059 5.167059 5.167059 5.167059 5.244314 5.244314 5.244314 5.244314 5.321569 5.321569 5.321569 5.321569 5.3988237 5.3988237 5.3988237 5.3988237 5.4760785 5.4760785 5.4760785 5.4760785 5.5533338 5.5533338 5.5533338 5.6305885 5.6305885 5.6305885 5.6305885 5.6305885 5.7078433 5.7078433 5.785098 5.785098 5.785098 5.785098 5.8623533 5.8623533 5.8623533 5.939608 5.939608 5.939608 6.016863 6.016863 6.094118 6.094118 6.171373 6.171373 6.171373 6.2486277 6.2486277 6.3258824 6.3258824 6.4031377 6.4031377 6.4031377 6.4803925 6.4803925 6.4803925 6.557647 6.557647 6.557647 6.557647 6.634902 6.634902 6.634902 6.7121572 6.7121572 6.7121572 6.789412 6.789412 6.789412 6.789412 6.866667 6.866667 6.9439216 6.9439216 6.9439216 6.9439216 7.021177 7.021177 7.021177 7.0984316 7.0984316 7.1756864 7.1756864 7.1756864 7.252941 7.252941 7.252941 7.3301964 7.3301964 7.3301964 7.407451 7.407451 7.484706 7.484706 7.484706 7.561961 7.561961 7.561961 7.639216 7.639216 7.716471 7.716471 7.7937264 7.7937264 7.7937264 7.7937264 7.716471 7.716471 7.716471 7.716471 7.716471 7.639216 7.639216 7.639216 7.639216 7.639216 7.639216 7.639216 7.561961 7.561961 7.561961 7.561961 7.561961 7.561961 7.561961 7.561961 7.561961 7.561961 7.561961 7.639216 7.639216 7.639216 7.639216 7.639216 7.716471 7.716471 7.7937264 7.7937264 7.870981 7.870981 7.948236 7.948236 7.948236 7.948236 7.948236 7.948236 7.948236 7.948236 7.948236 7.948236 7.948236 7.948236 7.948236 7.948236 7.948236 7.948236 7.870981 7.870981 7.870981 7.870981 7.870981 7.870981 7.870981 7.870981 7.948236 7.948236 8.025491 8.48902 8.48902 8.411765 8.411765 8.411765 8.411765 8.411765 8.411765 8.411765 8.334511 8.334511 8.334511 8.334511 8.257256 8.257256 8.257256 8.257256 8.18 8.18 8.18 8.18 8.18 8.102746 8.102746 8.102746 8.102746 8.025491 8.025491 8.025491 8.025491 8.025491 7.948236 7.948236 7.948236 7.948236 7.948236 7.870981 7.870981 7.870981 7.870981 7.7937264 7.7937264 7.7937264 7.7937264 7.7937264 7.716471 7.716471 7.716471 7.716471 7.716471 7.639216 7.639216 7.639216 7.639216 7.639216 7.561961 7.561961 7.561961 7.561961 7.561961 7.484706 7.484706 7.484706 7.484706 7.484706 7.407451 7.407451 7.407451 7.407451 7.407451 7.407451 7.3301964 7.3301964 7.3301964 7.3301964 7.3301964 7.252941 7.252941 7.252941 7.252941 7.252941 7.252941 7.252941 7.1756864 7.1756864 7.1756864 7.1756864 7.1756864 7.1756864 7.1756864 7.0984316 7.0984316 7.0984316 7.0984316 7.0984316 7.0984316 7.021177 7.021177 7.021177 7.021177 7.021177 7.021177 7.021177 7.021177 6.9439216 6.9439216 6.9439216 6.9439216 6.9439216 6.9439216 6.9439216 6.9439216 6.9439216 6.866667 6.866667 6.866667 6.866667 6.866667 6.866667 6.866667 6.866667 6.866667 6.866667 6.866667 6.866667 6.866667 6.789412 6.789412 6.789412 6.789412 6.789412 6.789412 6.789412 6.789412 6.789412 6.789412 6.789412 6.789412 6.789412 6.7121572 6.7121572 6.7121572 6.7121572 6.7121572 6.7121572 6.7121572 6.7121572 6.7121572 6.7121572 6.7121572 6.7121572 6.7121572 6.7121572 6.7121572 6.789412 6.789412 6.789412 6.789412
4.70353 4.70353 4.70353 4.70353 4.70353 4.70353 4.7807846 4.7807846 4.7807846 4.7807846 4.7807846 4.7807846 4.7807846 4.7807846 4.7807846 4.8580394 4.8580394 4.8580394 4.8580394 4.8580394 4.8580394 4.8580394 4.8580394 4.9352946 4.9352946 4.9352946 4.9352946 4.9352946 4.9352946 4.9352946 5.0125494 5.0125494 5.0125494 5.0125494 5.0125494 5.089804 5.089804 5.089804 5.089804 5.167059 5.167059 5.167059 5.167059 5.244314 5.244314 5.244314 5.244314 5.321569 5.321569 5.321569 5.321569 5.3988237 5.3988237 5.3988237 5.4760785 5.4760785 5.4760785 5.4760785 5.4760785 5.5533338 5.5533338 5.5533338 5.6305885 5.6305885 5.6305885 5.6305885 5.7078433 5.7078433 5.7078433 5.785098 5.785098 5.785098 5.785098 5.8623533 5.8623533 5.8623533 5.939608 5.939608 6.016863 6.016863 6.016863 6.094118 6.094118 6.171373 6.171373 6.2486277 6.2486277 6.3258824 6.3258824 6.4031377 6.4031377 6.4031377 6.4031377 6.4803925 6.4803925 6.4803925 6.557647 6.557647 6.557647 6.557647 6.634902 6.634902 6.634902 6.7121572 6.7121572 6.7121572 6.789412 6.789412 6.789412 6.866667 6.866667 6.866667 6.9439216 6.9439216 6.9439216 7.021177 7.021177 7.021177 7.0984316 7.0984316 7.0984316 7.1756864 7.1756864 7.1756864 7.252941 7.252941 7.252941 7.3301964 7.3301964 7.3301964 7.407451 7.407451 7.484706 7.484706 7.484706 7.561961 7.561961 7.639216 7.639216 7.639216 7.716471 7.716471 7.716471 7.716471 7.716471 7.716471 7.716471 7.716471 7.716471 7.639216 7.639216 7.639216 7.639216 7.639216 7.639216 7.561961 7.561961 7.561961 7.561961 7.561961 7.561961 7.561961 7.561961 7.561961 7.561961 7.561961 7.561961 7.561961 7.561961 7.639216 7.639216 7.639216 7.639216 7.716471 7.716471 7.716471 7.7937264 7.7937264 7.870981 7.870981 7.948236 7.948236 7.948236 7.948236 7.948236 7.948236 7.948236 7.948236 7.948236 7.948236 7.948236 7.948236 7.870981 7.870981 7.870981 7.870981 7.870981 7.870981 7.870981 7.870981 7.870981 7.870981 7.870981 7.948236 7.948236 8.025491 8.411765 8.411765 8.411765 8.411765 8.411765 8.411765 8.411765 8.334511 8.334511 8.334511 8.334511 8.257256 8.257256 8.257256 8.257256 8.257256 8.18 8.18 8.18 8.18 8.102746 8.102746 8.102746 8.102746 8.025491 8.025491 8.025491 8.025491 8.025491 8.025491 7.948236 7.948236 7.948236 7.948236 7.870981 7.870981 7.870981 7.870981 7.7937264 7.7937264 7.7937264 7.7937264 7.7937264 7.7937264 7.716471 7.716471 7.716471 7.716471 7.639216 7.639216 7.639216 7.639216 7.639216 7.561961 7.561961 7.561961 7.561961 7.561961 7.484706 7.484706 7.484706 7.484706 7.484706 7.407451 7.407451 7.407451 7.407451 7.407451 7.407451 7.3301964 7.3301964 7.3301964 7.3301964 7.3301964 7.252941 7.252941 7.252941 7.252941 7.252941 7.252941 7.1756864 7.1756864 7.1756864 7.1756864 7.1756864 7.1756864 7.1756864 7.0984316 7.0984316 7.0984316 7.0984316 7.0984316 7.0984316 7.0984316 7.021177 7.021177 7.021177 7.021177 7.021177 7.021177 7.021177 6.9439216 6.9439216 6.9439216 6.9439216 6.9439216 6.9439216 6.9439216 6.9439216 6.866667 6.866667 6.866667 6.866667 6.866667 6.866667 6.866667 6.866667 6.789412 6.789412 6.789412 6.789412 6.789412 6.789412 6.789412 6.789412 6.789412 6.789412 6.789412 6.789412 6.789412 6.789412 6.789412 6.789412 6.789412 6.7121572 6.7121572 6.7121572 6.7121572 6.7121572 6.7121572 6.7121572 6.7121572 6.7121572 6.7121572 6.7121572 6.634902 6.634902 6.634902 6.634902 6.634902 6.634902 6.634902 6.634902 6.634902 6.634902 6.7121572 6.7121572 6.7121572
4.626275 4.70353 4.70353 4.70353 4.70353 4.70353 4.70353 4.70353 4.7807846 4.7807846 4.7807846 4.7807846 4.7807846 4.7807846 4.7807846 4.7807846 4.7807846 4.8580394 4.8580394 4.8580394 4.8580394 4.8580394 4.8580394 4.8580394 4.8580394 4.9352946 4.9352946 4.9352946 4.9352946 4.9352946 4.9352946 4.9352946 5.0125494 5.0125494 5.0125494 5.0125494 5.089804 5.089804 5.089804 5.167059 5.167059 5.167059 5.167059 5.244314 5.244314 5.244314 5.244314 5.321569 5.321569 5.321569 5.321569 5.321569 5.3988237 5.3988237 5.3988237 5.4760785 5.4760785 5.4760785 5.4760785 5.4760785 5.5533338 5.5533338 5.5533338 5.6305885 5.6305885 5.6305885 5.6305885 5.7078433 5.7078433 5.7078433 5.785098 5.785098 5.785098 5.785098 5.8623533 5.8623533 5.939608 5.939608 5.939608 6.016863 6.016863 6.094118 6.094118 6.171373 6.171373 6.171373 6.2486277 6.2486277 6.3258824 6.3258824 6.4031377 6.4031377 6.4031377 6.4803925 6.4803925 6.4803925 6.4803925 6.557647 6.557647 6.557647 6.557647 6.634902 6.634902 6.634902 6.7121572 6.7121572 6.7121572 6.789412 6.789412 6.789412 6.866667 6.866667 6.866667 6.9439216 6.9439216 6.9439216 7.021177 7.021177 7.021177 7.0984316 7.0984316 7.0984316 7.1756864 7.1756864 7.1756864 7.252941 7.252941 7.252941 7.3301964 7.3301964 7.407451 7.407451 7.407451 7.484706 7.484706 7.484706 7.561961 7.561961 7.639216 7.639216 7.639216 7.716471 7.716471 7.716471 7.716471 7.716471 7.716471 7.639216 7.639216 7.639216 7.639216 7.639216 7.639216 7.561961 7.561961 7.561961 7.561961 7.561961 7.561961 7.561961 7.561961 7.561961 7.561961 7.561961 7.561961 7.561961 7.561961 7.561961 7.561961 7.561961 7.561961 7.639216 7.639216 7.639216 7.716471 7.716471 7.716471 7.7937264 7.7937264 7.870981 7.870981 7.870981 7.948236 7.948236 7.948236 7.948236 7.948236 7.948236 7.948236 7.948236 7.948236 7.870981 7.870981 7.870981 7.870981 7.870981 7.870981 7.870981 7.870981 7.870981 7.870981 7.870981 7.870981 7.948236 7.948236 7.948236 8.411765 8.411765 8.411765 8.411765 8.334511 8.334511 8.334511 8.334511 8.334511 8.334511 8.257256 8.257256 8.257256 8.257256 8.18 8.18 8.18 8.18 8.18 8.102746 8.102746 8.102746 8.102746 8.025491 8.025491 8.025491 8.025491 8.025491 7.948236 7.948236 7.948236 7.948236 7.870981 7.870981 7.870981 7.870981 7.7937264 7.7937264 7.7937264 7.7937264 7.7937264 7.7937264 7.716471 7.716471 7.716471 7.716471 7.716471 7.639216 7.639216 7.639216 7.639216 7.561961 7.561961 7.561961 7.561961 7.561961 7.484706 7.484706 7.484706 7.484706 7.484706 7.484706 7.407451 7.407451 7.407451 7.407451 7.407451 7.3301964 7.3301964 7.3301964 7.3301964 7.3301964 7.3301964 7.252941 7.252941 7.252941 7.252941 7.252941 7.1756864 7.1756864 7.1756864 7.1756864 7.1756864 7.1756864 7.1756864 7.0984316 7.0984316 7.0984316 7.0984316 7.0984316 7.0984316 7.021177 7.021177 7.021177 7.021177 7.021177 7.021177 7.021177 6.9439216 6.9439216 6.9439216 6.9439216 6.9439216 6.9439216 6.9439216 6.9439216 6.866667 6.866667 6.866667 6.866667 6.866667 6.866667 6.866667 6.866667 6.789412 6.789412 6.789412 6.789412 6.789412 6.789412 6.789412 6.789412 6.789412 6.789412 6.789412 6.7121572 6.7121572 6.7121572 6.7121572 6.7121572 6.7121572 6.7121572 6.7121572 6.7121572 6.7121572 6.7121572 6.7121572 6.7121572 6.7121572 6.634902 6.634902 6.634902 6.634902 6.634902 6.634902 6.634902 6.634902 6.634902 6.634902 6.634902 6.634902 6.634902 6.634902 6.634902 6.634902 6.634902 6.634902 6.634902
4.626275 4.626275 4.626275 4.70353 4.70353 4.70353 4.70353 4.70353 4.70353 4.70353 4.7807846 4.7807846 4.7807846 4.7807846 4.7807846 4.7807846 4.7807846 4.7807846 4.7807846 4.8580394 4.8580394 4.8580394 4.8580394 4.8580394 4.8580394 4.8580394 4.8580394 4.9352946 4.9352946 4.9352946 4.9352946 4.9352946 5.0125494 5.0125494 5.0125494 5.0125494 5.089804 5.089804 5.089804 5.089804 5.167059 5.167059 5.167059 5.167059 5.244314 5.244314 5.244314 5.244314 5.321569 5.321569 5.321569 5.321569 5.321569 5.3988237 5.3988237 5.3988237 5.4760785 5.4760785 5.4760785 5.4760785 5.4760785 5.5533338 5.5533338 5.5533338 5.6305885 5.6305885 5.6305885 5.6305885 5.7078433 5.7078433 5.7078433 5.785098 5.785098 5.785098 5.785098 5.8623533 5.8623533 5.939608 5.939608 6.016863 6.016863 6.094118 6.094118 6.094118 6.171373 6.171373 6.2486277 6.2486277 6.3258824 6.3258824 6.3258824 6.4031377 6.4031377 6.4031377 6.4803925 6.4803925 6.4803925 6.4803925 6.557647 6.557647 6.557647 6.557647 6.634902 6.634902 6.634902 6.7121572 6.7121572 6.7121572 6.789412 6.789412 6.789412 6.866667 6.866667 6.866667 6.9439216 6.9439216 6.9439216 7.021177 7.021177 7.021177 7.0984316 7.0984316 7.0984316 7.1756864 7.1756864 7.1756864 7.252941 7.252941 7.252941 7.3301964 7.3301964 7.407451 7.407451 7.407451 7.484706 7.484706 7.561961 7.561961 7.561961 7.639216 7.639216 7.716471 7.716471 7.716471 7.716471 7.716471 7.639216 7.639216 7.639216 7.639216 7.639216 7.639216 7.561961 7.561961 7.561961 7.561961 7.561961 7.561961 7.561961 7.561961 7.561961 7.561961 7.561961 7.561961 7.561961 7.561961 7.561961 7.561961 7.561961 7.561961 7.561961 7.561961 7.639216 7.639216 7.639216 7.716471 7.716471 7.716471 7.7937264 7.7937264 7.870981 7.870981 7.870981 7.870981 7.948236 7.948236 7.948236 7.948236 7.948236 7.948236 7.870981 7.870981 7.870981 7.870981 7.870981 7.870981 7.870981 7.870981 7.870981 7.870981 7.870981 7.870981 7.870981 7.948236 7.948236 8.025491 8.334511 8.334511 8.334511 8.334511 8.334511 8.334511 8.334511 8.334511 8.257256 8.257256 8.257256 8.257256 8.257256 8.18 8.18 8.18 8.18 8.102746 8.102746 8.102746 8.102746 8.025491 8.025491 8.025491 8.025491 8.025491 7.948236 7.948236 7.948236 7.948236 7.948236 7.870981 7.870981 7.870981 7.870981 7.7937264 7.7937264 7.7937264 7.7937264 7.7937264 7.716471 7.716471 7.716471 7.716471 7.716471 7.639216 7.639216 7.639216 7.639216 7.639216 7.561961 7.561961 7.561961 7.561961 7.561961 7.484706 7.484706 7.484706 7.484706 7.484706 7.407451 7.407451 7.407451 7.407451 7.407451 7.3301964 7.3301964 7.3301964 7.3301964 7.3301964 7.3301964 7.252941 7.252941 7.252941 7.252941 7.252941 7.252941 7.1756864 7.1756864 7.1756864 7.1756864 7.1756864 7.1756864 7.0984316 7.0984316 7.0984316 7.0984316 7.0984316 7.0984316 7.021177 7.021177 7.021177 7.021177 7.021177 7.021177 7.021177 6.9439216 6.9439216 6.9439216 6.9439216 6.9439216 6.9439216 6.9439216 6.9439216 6.866667 6.866667 6.866667 6.866667 6.866667 6.866667 6.866667 6.789412 6.789412 6.789412 6.789412 6.789412 6.789412 6.789412 6.789412 6.789412 6.7121572 6.7121572 6.7121572 6.7121572 6.7121572 6.7121572 6.7121572 6.7121572 6.7121572 6.7121572 6.7121572 6.7121572 6.7121572 6.7121572 6.7121572 6.634902 6.634902 6.634902 6.634902 6.634902 6.634902 6.634902 6.634902 6.634902 6.634902 6.557647 6.557647 6.557647 6.557647 6.557647 6.557647 6.557647 6.557647 6.557647 6.557647 6.557647 6.557647 6.557647
