11.656471 11.733726 11.733726 11.733726 11.733726 11.733726 11.733726 11.733726 11.810981 11.888236 11.888236 11.96549 12.042746 11.888236 11.733726 11.656471 11.501962 11.424706 11.347451 11.270197 11.270197 11.192942 11.192942 11.192942 11.115686 11.115686 11.115686 11.115686 11.038432 11.038432 11.038432 11.038432 11.038432 10.961177 10.961177 10.961177 10.961177 10.961177 10.883923 10.883923 10.883923 10.883923 10.883923 10.883923 10.961177 10.961177 10.961177 11.038432 11.038432 11.038432 11.115686 11.115686 11.115686 11.192942 11.192942 11.038432 10.883923 10.652158 10.497647 10.343138 10.343138 10.2658825 10.2658825 10.2658825 10.2658825 10.2658825 10.2658825 10.2658825 10.188628 10.188628 10.188628 10.188628 10.188628 10.188628 10.188628 10.188628 10.188628 10.188628 10.188628 10.111373 10.111373 10.111373 10.111373 10.111373 10.188628 10.188628 10.188628 10.188628 10.2658825 10.2658825 10.2658825 10.2658825 10.2658825 10.2658825 10.2658825 10.2658825 10.2658825 10.2658825 10.2658825 10.2658825 10.2658825 10.2658825 10.2658825 10.2658825 10.2658825 10.2658825 10.2658825 10.188628 10.188628 10.188628 10.188628 10.111373 10.111373 10.111373 10.034119 10.034119 10.034119 10.034119 10.034119 10.034119 10.034119 10.034119 10.034119 10.034119 10.034119 10.111373 10.111373 10.188628 10.2658825 10.420393 10.420393 10.420393 10.420393 10.420393 10.420393 10.420393 10.420393 10.497647 10.574903 10.574903 10.652158 10.652158 10.729412 10.806667 10.806667 11.424706 11.424706 11.424706 13.896863 13.896863 13.896863 13.896863 13.896863 13.896863 13.896863 13.896863 13.896863 13.896863 13.896863 13.896863 13.896863 13.896863 13.896863 13.896863 13.896863 13.896863 13.896863 13.896863 13.896863 13.896863 13.896863 13.896863 13.896863 13.896863 13.896863 13.896863 13.896863 13.896863 13.896863 13.896863 13.896863 13.896863 13.896863 13.896863 13.896863 13.896863 13.896863 13.896863 13.896863 13.896863 13.896863 13.896863 13.896863 13.896863 13.896863 13.896863 13.896863 13.896863 13.896863 13.896863 13.896863 13.896863 13.896863 13.896863 13.896863 13.896863 13.896863 13.896863 13.896863 13.896863 13.896863 13.896863 13.896863 13.896863 13.896863 13.896863 13.819609 13.742353 13.665098 13.587844 13.587844 13.510589 13.433333 13.356079 13.356079 13.278824 13.278824 13.201569 13.201569 13.124314 13.124314 13.047059 13.047059 13.047059 12.969805 12.969805 12.8925495 12.8925495 12.815294 11.501962 11.347451 11.270197 11.192942 11.115686 11.115686 11.038432 10.961177 10.883923 10.883923 10.806667 10.729412 10.729412 10.652158 10.652158 10.574903 10.574903 10.574903 10.497647 10.497647 10.497647 10.420393 10.420393 10.420393 10.343138 10.343138 10.343138 10.2658825 10.2658825 10.2658825 10.2658825 10.188628 10.188628 10.188628 10.188628 10.188628 10.188628 10.111373 10.111373 10.111373 10.111373 10.111373 10.111373 10.111373 10.111373 10.111373 10.188628 10.188628 10.2658825 10.343138 10.2658825 10.2658825 10.2658825 10.2658825 10.2658825 10.188628 10.188628 10.188628 10.188628 10.111373 10.111373 10.111373 10.034119 10.034119 10.034119 9.956863 9.956863 9.956863 9.879608 9.879608 9.802354 9.802354 9.725099 9.725099 9.647843 9.647843 9.570589 9.570589
11.656471 11.656471 11.733726 11.733726 11.733726 11.733726 11.733726 11.733726 11.810981 11.810981 11.888236 11.96549 11.96549 11.888236 11.733726 11.656471 11.501962 11.424706 11.347451 11.270197 11.270197 11.192942 11.192942 11.192942 11.192942 11.115686 11.115686 11.115686 11.115686 11.038432 11.038432 11.038432 11.038432 11.038432 10.961177 10.961177 10.961177 10.961177 10.961177 10.883923 10.883923 10.883923 10.883923 10.883923 10.961177 10.961177 10.961177 11.038432 11.038432 11.038432 11.115686 11.115686 11.115686 11.192942 11.192942 10.961177 10.806667 10.574903 10.497647 10.420393 10.343138 10.343138 10.343138 10.2658825 10.2658825 10.2658825 10.2658825 10.2658825 10.2658825 10.2658825 10.2658825 10.2658825 10.188628 10.188628 10.188628 10.188628 10.188628 10.188628 10.188628 10.188628 10.188628 10.188628 10.188628 10.188628 10.188628 10.188628 10.2658825 10.2658825 10.2658825 10.2658825 10.2658825 10.2658825 10.2658825 10.2658825 10.343138 10.343138 10.343138 10.343138 10.343138 10.343138 10.343138 10.343138 10.343138 10.343138 10.2658825 10.2658825 10.2658825 10.188628 10.188628 10.188628 10.188628 10.111373 10.111373 10.111373 10.034119 10.034119 10.034119 9.956863 9.956863 9.956863 9.956863 9.956863 9.956863 9.956863 9.956863 9.956863 9.956863 10.034119 10.034119 10.111373 10.188628 10.420393 10.420393 10.420393 10.420393 10.420393 10.497647 10.574903 10.574903 10.652158 10.652158 10.729412 10.806667 10.806667 10.883923 11.347451 11.424706 11.424706 11.424706 13.742353 13.742353 13.742353 13.742353 13.742353 13.742353 13.742353 13.742353 13.742353 13.742353 13.742353 13.742353 13.742353 13.742353 13.742353 13.742353 13.742353 13.742353 13.742353 13.742353 13.742353 13.742353 13.742353 13.742353 13.742353 13.742353 13.742353 13.742353 13.742353 13.742353 13.742353 13.742353 13.742353 13.742353 13.742353 13.742353 13.742353 13.742353 13.742353 13.742353 13.742353 13.742353 13.742353 13.742353 13.742353 13.742353 13.742353 13.742353 13.742353 13.742353 13.742353 13.742353 13.742353 13.742353 13.742353 13.742353 13.742353 13.742353 13.742353 13.742353 13.742353 13.742353 13.742353 13.742353 13.742353 13.742353 13.742353 13.742353 13.742353 13.665098 13.587844 13.510589 13.510589 13.433333 13.356079 13.356079 13.278824 13.278824 13.201569 13.201569 13.124314 13.124314 13.124314 13.047059 13.047059 12.969805 12.969805 12.8925495 12.8925495 11.424706 11.347451 11.270197 11.270197 11.192942 11.115686 11.038432 11.038432 10.961177 10.883923 10.806667 10.806667 10.729412 10.729412 10.652158 10.652158 10.574903 10.574903 10.574903 10.497647 10.497647 10.497647 10.420393 10.420393 10.420393 10.343138 10.343138 10.343138 10.2658825 10.2658825 10.2658825 10.2658825 10.2658825 10.188628 10.188628 10.188628 10.188628 10.188628 10.111373 10.111373 10.111373 10.111373 10.111373 10.111373 10.111373 10.111373 10.111373 10.188628 10.188628 10.2658825 10.2658825 10.2658825 10.2658825 10.2658825 10.2658825 10.2658825 10.2658825 10.188628 10.188628 10.188628 10.188628 10.111373 10.111373 10.111373 10.034119 10.034119 9.956863 9.956863 9.956863 9.879608 9.879608 9.802354 9.802354 9.725099 9.725099 9.647843 9.647843 9.570589 9.570589
11.656471 11.656471 11.733726 11.733726 11.733726 11.733726 11.733726 11.733726 11.810981 11.810981 11.888236 11.96549 11.96549 11.888236 11.733726 11.656471 11.501962 11.424706 11.347451 11.270197 11.270197 11.270197 11.192942 11.192942 11.192942 11.115686 11.115686 11.115686 11.115686 11.115686 11.038432 11.038432 11.038432 11.038432 11.038432 11.038432 10.961177 10.961177 10.961177 10.961177 10.961177 10.883923 10.883923 10.961177 10.961177 10.961177 11.038432 11.038432 11.038432 11.038432 11.115686 11.115686 11.115686 11.192942 11.115686 10.883923 10.729412 10.574903 10.497647 10.420393 10.420393 10.343138 10.343138 10.343138 10.343138 10.343138 10.2658825 10.2658825 10.2658825 10.2658825 10.2658825 10.2658825 10.2658825 10.2658825 10.2658825 10.2658825 10.2658825 10.188628 10.188628 10.188628 10.188628 10.188628 10.188628 10.188628 10.2658825 10.2658825 10.2658825 10.2658825 10.343138 10.343138 10.343138 10.343138 10.343138 10.343138 10.343138 10.343138 10.343138 10.343138 10.343138 10.343138 10.343138 10.343138 10.343138 10.343138 10.2658825 10.2658825 10.2658825 10.2658825 10.188628 10.188628 10.188628 10.111373 10.111373 10.111373 10.034119 10.034119 10.034119 9.956863 9.956863 9.956863 9.956863 9.956863 9.956863 9.956863 9.956863 9.956863 9.956863 9.956863 9.956863 9.956863 9.956863 10.034119 10.111373 10.111373 10.497647 10.497647 10.574903 10.574903 10.652158 10.652158 10.729412 10.806667 10.806667 10.883923 10.961177 11.347451 11.347451 11.347451 11.424706 11.424706 13.665098 13.665098 13.665098 13.665098 13.665098 13.665098 13.665098 13.665098 13.665098 13.665098 13.665098 13.665098 13.665098 13.665098 13.665098 13.665098 13.665098 13.665098 13.665098 13.665098 13.665098 13.665098 13.665098 13.665098 13.665098 13.665098 13.665098 13.665098 13.665098 13.665098 13.665098 13.665098 13.665098 13.665098 13.665098 13.665098 13.665098 13.665098 13.665098 13.665098 13.665098 13.665098 13.665098 13.665098 13.665098 13.665098 13.665098 13.665098 13.665098 13.665098 13.665098 13.665098 13.665098 13.665098 13.665098 13.665098 13.665098 13.665098 13.665098 13.665098 13.665098 13.665098 13.665098 13.665098 13.665098 13.665098 13.665098 13.587844 13.587844 13.587844 13.510589 13.433333 13.433333 13.356079 13.356079 13.278824 13.278824 13.201569 13.201569 13.124314 13.124314 13.124314 13.047059 13.047059 12.969805 12.969805 12.8925495 11.424706 11.424706 11.347451 11.270197 11.192942 11.115686 11.115686 11.038432 10.961177 10.883923 10.883923 10.806667 10.729412 10.729412 10.652158 10.652158 10.652158 10.574903 10.574903 10.574903 10.497647 10.497647 10.497647 10.420393 10.420393 10.420393 10.343138 10.343138 10.343138 10.2658825 10.2658825 10.2658825 10.2658825 10.2658825 10.188628 10.188628 10.188628 10.188628 10.188628 10.188628 10.111373 10.111373 10.111373 10.111373 10.111373 10.111373 10.188628 10.188628 10.188628 10.188628 10.2658825 10.2658825 10.2658825 10.2658825 10.2658825 10.2658825 10.2658825 10.2658825 10.188628 10.188628 10.188628 10.188628 10.111373 10.111373 10.111373 10.034119 10.034119 9.956863 9.956863 9.956863 9.879608 9.879608 9.802354 9.802354 9.725099 9.725099 9.647843 9.647843 9.570589 9.570589
11.656471 11.656471 11.656471 11.733726 11.733726 11.733726 11.733726 11.733726 11.810981 11.810981 11.888236 11.96549 11.96549 11.888236 11.810981 11.656471 11.501962 11.424706 11.347451 11.270197 11.270197 11.270197 11.192942 11.192942 11.192942 11.192942 11.115686 11.115686 11.115686 11.115686 11.115686 11.038432 11.038432 11.038432 11.038432 11.038432 11.038432 10.961177 10.961177 10.961177 10.961177 10.961177 10.883923 10.961177 10.961177 10.961177 11.038432 11.038432 11.038432 11.115686 11.115686 11.115686 11.192942 11.192942 11.038432 10.806667 10.652158 10.574903 10.574903 10.497647 10.420393 10.420393 10.420393 10.420393 10.343138 10.343138 10.343138 10.343138 10.343138 10.343138 10.2658825 10.2658825 10.2658825 10.2658825 10.2658825 10.2658825 10.2658825 10.2658825 10.2658825 10.2658825 10.2658825 10.188628 10.2658825 10.2658825 10.2658825 10.2658825 10.343138 10.343138 10.343138 10.343138 10.343138 10.343138 10.343138 10.343138 10.343138 10.343138 10.343138 10.343138 10.343138 10.343138 10.343138 10.343138 10.343138 10.343138 10.343138 10.2658825 10.2658825 10.2658825 10.188628 10.188628 10.188628 10.111373 10.111373 10.111373 10.034119 10.034119 10.034119 9.956863 9.956863 9.956863 9.956863 9.879608 9.879608 9.879608 9.879608 9.879608 9.879608 9.879608 9.879608 9.879608 9.879608 9.879608 9.956863 9.956863 10.034119 10.034119 10.574903 10.652158 10.652158 10.729412 10.806667 10.806667 10.883923 10.961177 10.961177 11.270197 11.270197 11.347451 11.347451 11.347451 11.424706 13.510589 13.510589 13.510589 13.510589 13.510589 13.510589 13.510589 13.510589 13.510589 13.510589 13.510589 13.510589 13.510589 13.510589 13.510589 13.510589 13.510589 13.510589 13.510589 13.510589 13.510589 13.510589 13.510589 13.510589 13.510589 13.510589 13.510589 13.510589 13.510589 13.510589 13.510589 13.510589 13.510589 13.510589 13.510589 13.510589 13.510589 13.510589 13.510589 13.510589 13.510589 13.510589 13.510589 13.510589 13.510589 13.510589 13.510589 13.510589 13.510589 13.510589 13.510589 13.510589 13.510589 13.510589 13.510589 13.510589 13.510589 13.510589 13.510589 13.510589 13.510589 13.510589 13.510589 13.510589 13.510589 13.510589 13.510589 13.510589 13.510589 13.510589 13.433333 13.356079 13.356079 13.278824 13.278824 13.278824 13.201569 13.201569 13.124314 13.124314 13.124314 13.047059 13.047059 12.969805 11.656471 11.501962 11.424706 11.347451 11.270197 11.192942 11.192942 11.115686 11.038432 10.961177 10.961177 10.883923 10.806667 10.729412 10.729412 10.729412 10.652158 10.652158 10.574903 10.574903 10.574903 10.497647 10.497647 10.497647 10.497647 10.420393 10.420393 10.420393 10.343138 10.343138 10.343138 10.2658825 10.2658825 10.2658825 10.2658825 10.2658825 10.2658825 10.188628 10.188628 10.188628 10.188628 10.188628 10.188628 10.188628 10.188628 10.188628 10.188628 10.188628 10.188628 10.188628 10.188628 10.2658825 10.2658825 10.343138 10.2658825 10.2658825 10.343138 10.2658825 10.2658825 10.2658825 10.2658825 10.188628 10.188628 10.188628 10.111373 10.111373 10.111373 10.034119 10.034119 9.956863 9.956863 9.956863 9.879608 9.879608 9.802354 9.802354 9.725099 9.725099 9.647843 9.647843 9.570589 9.570589
11.656471 11.656471 11.656471 11.733726 11.733726 11.733726 11.733726 11.733726 11.810981 11.810981 11.888236 11.888236 11.96549 11.888236 11.810981 11.656471 11.501962 11.424706 11.347451 11.270197 11.270197 11.270197 11.192942 11.192942 11.192942 11.192942 11.192942 11.115686 11.115686 11.115686 11.115686 11.115686 11.038432 11.038432 11.038432 11.038432 11.038432 11.038432 10.961177 10.961177 10.961177 10.961177 10.961177 10.961177 10.961177 10.961177 11.038432 11.038432 11.038432 11.115686 11.115686 11.115686 11.192942 11.192942 10.961177 10.729412 10.652158 10.652158 10.574903 10.497647 10.497647 10.497647 10.420393 10.420393 10.420393 10.420393 10.420393 10.343138 10.343138 10.343138 10.343138 10.343138 10.343138 10.343138 10.343138 10.2658825 10.2658825 10.2658825 10.2658825 10.2658825 10.2658825 10.2658825 10.2658825 10.2658825 10.343138 10.343138 10.343138 10.343138 10.343138 10.343138 10.420393 10.420393 10.420393 10.420393 10.420393 10.420393 10.420393 10.420393 10.420393 10.420393 10.420393 10.420393 10.343138 10.343138 10.343138 10.2658825 10.2658825 10.2658825 10.188628 10.188628 10.188628 10.188628 10.111373 10.111373 10.111373 10.034119 10.034119 10.034119 9.956863 9.956863 9.956863 9.879608 9.879608 9.879608 9.879608 9.879608 9.879608 9.879608 9.879608 9.879608 9.879608 9.879608 9.879608 9.879608 9.879608 9.879608 9.956863 9.956863 10.034119 10.806667 10.806667 10.883923 10.961177 10.961177 11.038432 11.192942 11.270197 11.270197 11.270197 11.347451 11.347451 11.347451 13.433333 13.433333 13.433333 13.433333 13.433333 13.433333 13.433333 13.433333 13.433333 13.433333 13.433333 13.433333 13.433333 13.433333 13.433333 13.433333 13.433333 13.433333 13.433333 13.433333 13.433333 13.433333 13.433333 13.433333 13.433333 13.433333 13.433333 13.433333 13.433333 13.433333 13.433333 13.433333 13.433333 13.433333 13.433333 13.433333 13.433333 13.433333 13.433333 13.433333 13.433333 13.433333 13.433333 13.433333 13.433333 13.433333 13.433333 13.433333 13.433333 13.433333 13.433333 13.433333 13.433333 13.433333 13.433333 13.433333 13.433333 13.433333 13.433333 13.433333 13.433333 13.433333 13.433333 13.433333 13.433333 13.433333 13.433333 13.433333 13.433333 13.433333 13.356079 13.278824 13.278824 13.278824 13.201569 13.201569 13.201569 13.201569 13.124314 13.047059 13.047059 13.047059 11.656471 11.501962 11.424706 11.347451 11.347451 11.270197 11.192942 11.115686 11.038432 11.038432 10.961177 10.883923 10.806667 10.806667 10.729412 10.729412 10.652158 10.652158 10.652158 10.574903 10.574903 10.574903 10.497647 10.497647 10.497647 10.497647 10.420393 10.420393 10.420393 10.343138 10.343138 10.343138 10.343138 10.2658825 10.2658825 10.2658825 10.2658825 10.2658825 10.188628 10.188628 10.188628 10.188628 10.188628 10.188628 10.188628 10.188628 10.188628 10.188628 10.188628 10.188628 10.188628 10.2658825 10.2658825 10.2658825 10.343138 10.343138 10.343138 10.343138 10.2658825 10.2658825 10.2658825 10.2658825 10.188628 10.188628 10.188628 10.188628 10.111373 10.111373 10.034119 10.034119 9.956863 9.956863 9.956863 9.879608 9.802354 9.802354 9.725099 9.725099 9.647843 9.647843 9.647843 9.570589 9.570589
11.656471 11.656471 11.656471 11.656471 11.733726 11.733726 11.733726 11.733726 11.733726 11.810981 11.888236 11.888236 11.96549 11.888236 11.810981 11.656471 11.501962 11.424706 11.347451 11.347451 11.270197 11.270197 11.270197 11.270197 11.192942 11.192942 11.192942 11.192942 11.115686 11.115686 11.115686 11.115686 11.115686 11.115686 11.038432 11.038432 11.038432 11.038432 11.038432 10.961177 10.961177 10.961177 10.961177 10.961177 10.961177 11.038432 11.038432 11.038432 11.038432 11.115686 11.115686 11.115686 11.192942 11.115686 10.883923 10.806667 10.729412 10.652158 10.652158 10.574903 10.497647 10.497647 10.497647 10.497647 10.497647 10.420393 10.420393 10.420393 10.420393 10.420393 10.343138 10.343138 10.343138 10.343138 10.343138 10.343138 10.343138 10.343138 10.343138 10.2658825 10.2658825 10.2658825 10.343138 10.343138 10.343138 10.420393 10.420393 10.420393 10.420393 10.420393 10.420393 10.420393 10.420393 10.420393 10.420393 10.420393 10.420393 10.420393 10.420393 10.420393 10.420393 10.420393 10.343138 10.343138 10.343138 10.2658825 10.2658825 10.2658825 10.2658825 10.188628 10.188628 10.188628 10.111373 10.111373 10.111373 10.034119 10.034119 10.034119 9.956863 9.956863 9.956863 9.956863 9.879608 9.879608 9.879608 9.879608 9.879608 9.879608 9.879608 9.879608 9.879608 9.879608 9.879608 9.879608 9.879608 9.879608 9.879608 9.879608 9.879608 9.879608 9.956863 10.961177 10.961177 11.038432 11.115686 11.192942 11.192942 11.192942 11.270197 11.270197 11.270197 11.347451 11.347451 13.278824 13.278824 13.278824 13.278824 13.278824 13.278824 13.278824 13.278824 13.278824 13.278824 13.278824 13.278824 13.278824 13.278824 13.278824 13.278824 13.278824 13.278824 13.278824 13.278824 13.278824 13.278824 13.278824 13.278824 13.278824 13.278824 13.278824 13.278824 13.278824 13.278824 13.278824 13.278824 13.278824 13.278824 13.278824 13.278824 13.278824 13.278824 13.278824 13.278824 13.278824 13.278824 13.278824 13.278824 13.278824 13.278824 13.278824 13.278824 13.278824 13.278824 13.278824 13.278824 13.278824 13.278824 13.278824 13.278824 13.278824 13.278824 13.278824 13.278824 13.278824 13.278824 13.278824 13.278824 13.278824 13.278824 13.278824 13.278824 13.278824 13.278824 13.278824 13.278824 13.278824 13.201569 13.201569 13.124314 13.124314 13.124314 13.047059 13.047059 11.656471 11.501962 11.424706 11.424706 11.347451 11.270197 11.192942 11.115686 11.115686 11.038432 10.961177 10.883923 10.806667 10.806667 10.729412 10.729412 10.652158 10.652158 10.652158 10.652158 10.574903 10.574903 10.574903 10.497647 10.497647 10.497647 10.497647 10.420393 10.420393 10.420393 10.343138 10.343138 10.343138 10.343138 10.2658825 10.2658825 10.2658825 10.2658825 10.2658825 10.188628 10.188628 10.188628 10.188628 10.188628 10.188628 10.188628 10.188628 10.188628 10.188628 10.188628 10.2658825 10.2658825 10.2658825 10.2658825 10.343138 10.343138 10.343138 10.343138 10.343138 10.343138 10.2658825 10.2658825 10.2658825 10.2658825 10.188628 10.188628 10.188628 10.111373 10.111373 10.034119 10.034119 9.956863 9.956863 9.879608 9.879608 9.802354 9.802354 9.725099 9.725099 9.647843 9.647843 9.647843 9.570589 9.570589
11.656471 11.656471 11.656471 11.656471 11.733726 11.733726 11.733726 11.733726 11.733726 11.810981 11.888236 11.888236 11.96549 11.888236 11.810981 11.656471 11.501962 11.424706 11.347451 11.347451 11.270197 11.270197 11.270197 11.270197 11.270197 11.192942 11.192942 11.192942 11.192942 11.192942 11.115686 11.115686 11.115686 11.115686 11.115686 11.038432 11.038432 11.038432 11.038432 11.038432 11.038432 10.961177 10.961177 10.961177 10.961177 11.038432 11.038432 11.038432 11.115686 11.115686 11.115686 11.115686 11.192942 11.038432 10.883923 10.806667 10.806667 10.729412 10.652158 10.574903 10.574903 10.574903 10.497647 10.497647 10.497647 10.497647 10.497647 10.497647 10.420393 10.420393 10.420393 10.420393 10.420393 10.420393 10.343138 10.343138 10.343138 10.343138 10.343138 10.343138 10.343138 10.343138 10.343138 10.420393 10.420393 10.420393 10.420393 10.420393 10.420393 10.420393 10.420393 10.420393 10.420393 10.420393 10.420393 10.420393 10.420393 10.420393 10.497647 10.497647 10.420393 10.420393 10.420393 10.343138 10.343138 10.343138 10.2658825 10.2658825 10.2658825 10.188628 10.188628 10.188628 10.111373 10.111373 10.111373 10.034119 10.034119 10.034119 9.956863 9.956863 9.956863 9.956863 9.879608 9.879608 9.879608 9.802354 9.802354 9.802354 9.802354 9.802354 9.802354 9.802354 9.802354 9.802354 9.802354 9.802354 9.802354 9.802354 9.802354 9.802354 9.802354 9.802354 9.879608 9.956863 11.115686 11.115686 11.192942 11.192942 11.192942 11.192942 11.270197 11.270197 11.270197 11.347451 13.201569 13.201569 13.201569 13.201569 13.201569 13.201569 13.201569 13.201569 13.201569 13.201569 13.201569 13.201569 13.201569 13.201569 13.201569 13.201569 13.201569 13.201569 13.201569 13.201569 13.201569 13.201569 13.201569 13.201569 13.201569 13.201569 13.201569 13.201569 13.201569 13.201569 13.201569 13.201569 13.201569 13.201569 13.201569 13.201569 13.201569 13.201569 13.201569 13.201569 13.201569 13.201569 13.201569 13.201569 13.201569 13.201569 13.201569 13.201569 13.201569 13.201569 13.201569 13.201569 13.201569 13.201569 13.201569 13.201569 13.201569 13.201569 13.201569 13.201569 13.201569 13.201569 13.201569 13.201569 13.201569 13.201569 13.201569 13.201569 13.201569 13.201569 13.201569 13.201569 13.201569 13.124314 13.124314 13.124314 13.124314 11.810981 11.579216 11.501962 11.424706 11.424706 11.347451 11.270197 11.192942 11.192942 11.115686 11.038432 10.961177 10.883923 10.806667 10.729412 10.729412 10.729412 10.652158 10.652158 10.652158 10.652158 10.652158 10.574903 10.574903 10.574903 10.497647 10.497647 10.497647 10.420393 10.420393 10.420393 10.420393 10.343138 10.343138 10.343138 10.343138 10.2658825 10.2658825 10.2658825 10.2658825 10.2658825 10.2658825 10.2658825 10.188628 10.188628 10.188628 10.188628 10.188628 10.188628 10.188628 10.188628 10.2658825 10.2658825 10.2658825 10.2658825 10.343138 10.343138 10.343138 10.343138 10.343138 10.343138 10.343138 10.2658825 10.2658825 10.2658825 10.2658825 10.188628 10.188628 10.188628 10.111373 10.111373 10.034119 10.034119 9.956863 9.956863 9.879608 9.879608 9.802354 9.802354 9.725099 9.725099 9.647843 9.647843 9.570589 9.570589 9.570589
11.656471 11.656471 11.656471 11.656471 11.656471 11.656471 11.656471 11.656471 11.733726 11.810981 11.888236 11.888236 11.96549 11.888236 11.810981 11.656471 11.501962 11.424706 11.347451 11.347451 11.347451 11.270197 11.270197 11.270197 11.270197 11.270197 11.192942 11.192942 11.192942 11.192942 11.192942 11.115686 11.115686 11.115686 11.115686 11.115686 11.038432 11.038432 11.038432 11.038432 11.038432 11.038432 10.961177 10.961177 10.961177 11.038432 11.038432 11.038432 11.115686 11.115686 11.115686 11.192942 11.115686 10.961177 10.961177 10.883923 10.806667 10.729412 10.729412 10.652158 10.574903 10.574903 10.574903 10.574903 10.574903 10.497647 10.497647 10.497647 10.497647 10.497647 10.420393 10.420393 10.420393 10.420393 10.420393 10.420393 10.420393 10.420393 10.420393 10.343138 10.343138 10.420393 10.420393 10.420393 10.420393 10.420393 10.497647 10.497647 10.497647 10.497647 10.497647 10.497647 10.497647 10.497647 10.497647 10.497647 10.497647 10.497647 10.497647 10.497647 10.420393 10.420393 10.420393 10.343138 10.343138 10.343138 10.2658825 10.2658825 10.2658825 10.188628 10.188628 10.188628 10.188628 10.111373 10.111373 10.111373 10.034119 10.034119 10.034119 9.956863 9.956863 9.956863 9.879608 9.879608 9.879608 9.802354 9.802354 9.802354 9.802354 9.802354 9.802354 9.802354 9.802354 9.802354 9.802354 9.802354 9.802354 9.802354 9.802354 9.802354 9.802354 9.802354 9.802354 9.802354 9.802354 9.879608 11.115686 11.115686 11.192942 11.192942 11.192942 11.192942 11.270197 11.270197 11.270197 13.047059 13.047059 13.047059 13.047059 13.047059 13.047059 13.047059 13.047059 13.047059 13.047059 13.047059 13.047059 13.047059 13.047059 13.047059 13.047059 13.047059 13.047059 13.047059 13.047059 13.047059 13.047059 13.047059 13.047059 13.047059 13.047059 13.047059 13.047059 13.047059 13.047059 13.047059 13.047059 13.047059 13.047059 13.047059 13.047059 13.047059 13.047059 13.047059 13.047059 13.047059 13.047059 13.047059 13.047059 13.047059 13.047059 13.047059 13.047059 13.047059 13.047059 13.047059 13.047059 13.047059 13.047059 13.047059 13.047059 13.047059 13.047059 13.047059 13.047059 13.047059 13.047059 13.047059 13.047059 13.047059 13.047059 13.047059 13.047059 13.047059 13.047059 13.047059 13.047059 13.047059 13.047059 13.047059 11.579216 11.501962 11.501962 11.424706 11.424706 11.347451 11.270197 11.192942 11.115686 11.115686 11.038432 10.883923 10.806667 10.729412 10.652158 10.652158 10.652158 10.652158 10.652158 10.574903 10.574903 10.574903 10.574903 10.574903 10.574903 10.497647 10.497647 10.497647 10.497647 10.420393 10.420393 10.420393 10.420393 10.420393 10.343138 10.343138 10.343138 10.2658825 10.2658825 10.2658825 10.2658825 10.2658825 10.2658825 10.2658825 10.2658825 10.2658825 10.2658825 10.2658825 10.2658825 10.2658825 10.2658825 10.2658825 10.2658825 10.2658825 10.343138 10.343138 10.343138 10.343138 10.343138 10.343138 10.343138 10.343138 10.343138 10.343138 10.2658825 10.2658825 10.2658825 10.2658825 10.188628 10.188628 10.111373 10.111373 10.034119 10.034119 9.956863 9.956863 9.879608 9.879608 9.802354 9.802354 9.725099 9.725099 9.647843 9.647843 9.570589 9.570589 9.570589
11.579216 11.579216 11.579216 11.579216 11.656471 11.656471 11.656471 11.656471 11.579216 11.656471 11.733726 11.810981 11.888236 11.888236 11.733726 11.579216 11.424706 11.347451 11.347451 11.347451 11.347451 11.270197 11.270197 11.270197 11.270197 11.270197 11.270197 11.192942 11.192942 11.192942 11.192942 11.192942 11.115686 11.115686 11.115686 11.115686 11.115686 11.038432 11.038432 11.038432 11.038432 11.038432 11.038432 10.961177 11.038432 11.038432 11.038432 11.038432 11.115686 11.115686 11.115686 11.192942 11.115686 11.038432 10.961177 10.883923 10.883923 10.806667 10.729412 10.652158 10.652158 10.652158 10.652158 10.574903 10.574903 10.574903 10.574903 10.574903 10.497647 10.497647 10.497647 10.497647 10.497647 10.497647 10.420393 10.420393 10.420393 10.420393 10.420393 10.420393 10.420393 10.420393 10.497647 10.497647 10.497647 10.497647 10.497647 10.497647 10.497647 10.497647 10.497647 10.497647 10.497647 10.497647 10.497647 10.497647 10.497647 10.497647 10.497647 10.497647 10.497647 10.420393 10.420393 10.343138 10.343138 10.343138 10.2658825 10.2658825 10.2658825 10.188628 10.188628 10.188628 10.188628 10.111373 10.111373 10.111373 10.034119 10.034119 10.034119 9.956863 9.956863 9.956863 9.879608 9.879608 9.879608 9.879608 9.802354 9.802354 9.802354 9.802354 9.802354 9.802354 9.802354 9.802354 9.802354 9.802354 9.802354 9.802354 9.802354 9.802354 9.802354 9.802354 9.802354 9.802354 9.802354 9.802354 9.802354 9.802354 9.802354 11.115686 11.192942 11.192942 11.192942 11.192942 11.270197 11.270197 12.969805 12.969805 12.969805 12.969805 12.969805 12.969805 12.969805 12.969805 12.969805 12.969805 12.969805 12.969805 12.969805 12.969805 12.969805 12.969805 12.969805 12.969805 12.969805 12.969805 12.969805 12.969805 12.969805 12.969805 12.969805 12.969805 12.969805 12.969805 12.969805 12.969805 12.969805 12.969805 12.969805 12.969805 12.969805 12.969805 12.969805 12.969805 12.969805 12.969805 12.969805 12.969805 12.969805 12.969805 12.969805 12.969805 12.969805 12.969805 12.969805 12.969805 12.969805 12.969805 12.969805 12.969805 12.969805 12.969805 12.969805 12.969805 12.969805 12.969805 12.969805 12.969805 12.969805 12.969805 12.969805 12.969805 12.969805 12.969805 12.969805 12.969805 12.969805 12.969805 11.733726 11.656471 11.579216 11.501962 11.424706 11.424706 11.347451 11.270197 11.192942 11.115686 11.038432 10.883923 10.806667 10.729412 10.652158 10.652158 10.574903 10.574903 10.574903 10.497647 10.497647 10.497647 10.497647 10.497647 10.497647 10.497647 10.497647 10.497647 10.497647 10.497647 10.497647 10.420393 10.420393 10.420393 10.343138 10.343138 10.343138 10.343138 10.343138 10.2658825 10.2658825 10.2658825 10.2658825 10.2658825 10.2658825 10.2658825 10.2658825 10.2658825 10.2658825 10.2658825 10.2658825 10.2658825 10.2658825 10.2658825 10.2658825 10.343138 10.343138 10.343138 10.420393 10.420393 10.420393 10.420393 10.420393 10.343138 10.343138 10.343138 10.2658825 10.2658825 10.2658825 10.2658825 10.188628 10.188628 10.111373 10.111373 10.034119 10.034119 9.956863 9.956863 9.879608 9.879608 9.802354 9.802354 9.725099 9.725099 9.647843 9.647843 9.570589 9.570589 9.570589
11.579216 11.579216 11.579216 11.579216 11.579216 11.579216 11.579216 11.579216 11.579216 11.579216 11.656471 11.733726 11.810981 11.810981 11.656471 11.501962 11.347451 11.347451 11.270197 11.270197 11.270197 11.270197 11.270197 11.270197 11.270197 11.270197 11.270197 11.270197 11.270197 11.192942 11.192942 11.192942 11.192942 11.115686 11.115686 11.115686 11.115686 11.115686 11.115686 11.038432 11.038432 11.038432 11.038432 11.038432 11.038432 11.038432 11.038432 11.115686 11.115686 11.115686 11.115686 11.192942 11.115686 11.038432 11.038432 10.961177 10.883923 10.806667 10.806667 10.729412 10.652158 10.652158 10.652158 10.652158 10.652158 10.574903 10.574903 10.574903 10.574903 10.574903 10.574903 10.497647 10.497647 10.497647 10.497647 10.497647 10.497647 10.497647 10.497647 10.420393 10.497647 10.497647 10.497647 10.497647 10.497647 10.497647 10.497647 10.497647 10.497647 10.497647 10.497647 10.497647 10.497647 10.497647 10.497647 10.497647 10.497647 10.497647 10.497647 10.497647 10.497647 10.420393 10.420393 10.420393 10.343138 10.343138 10.2658825 10.2658825 10.2658825 10.2658825 10.188628 10.188628 10.188628 10.111373 10.111373 10.111373 10.034119 10.034119 10.034119 9.956863 9.956863 9.956863 9.956863 9.879608 9.879608 9.879608 9.802354 9.802354 9.802354 9.725099 9.725099 9.725099 9.725099 9.725099 9.725099 9.725099 9.725099 9.725099 9.725099 9.725099 9.725099 9.725099 9.725099 9.725099 9.725099 9.725099 9.725099 9.725099 9.725099 9.725099 9.725099 11.115686 11.192942 11.192942 11.192942 11.192942 11.270197 12.8925495 12.8925495 12.8925495 12.8925495 12.8925495 12.8925495 12.8925495 12.8925495 12.8925495 12.8925495 12.8925495 12.8925495 12.8925495 12.8925495 12.8925495 12.8925495 12.8925495 12.8925495 12.8925495 12.8925495 12.8925495 12.8925495 12.8925495 12.8925495 12.8925495 12.8925495 12.8925495 12.8925495 12.8925495 12.8925495 12.8925495 12.8925495 12.8925495 12.8925495 12.8925495 12.8925495 12.8925495 12.8925495 12.8925495 12.8925495 12.8925495 12.8925495 12.8925495 12.8925495 12.8925495 12.8925495 12.8925495 12.8925495 12.8925495 12.8925495 12.8925495 12.8925495 12.8925495 12.8925495 12.8925495 12.8925495 12.8925495 12.8925495 12.8925495 12.8925495 12.8925495 12.8925495 12.8925495 12.8925495 12.8925495 12.8925495 12.8925495 12.8925495 12.8925495 11.888236 11.733726 11.733726 11.656471 11.501962 11.501962 11.347451 11.347451 11.270197 11.192942 11.038432 10.961177 10.883923 10.806667 10.729412 10.652158 10.574903 10.574903 10.497647 10.497647 10.497647 10.497647 10.420393 10.420393 10.420393 10.420393 10.420393 10.420393 10.420393 10.420393 10.420393 10.420393 10.420393 10.420393 10.420393 10.343138 10.343138 10.343138 10.343138 10.343138 10.343138 10.343138 10.2658825 10.2658825 10.2658825 10.2658825 10.2658825 10.2658825 10.2658825 10.2658825 10.2658825 10.2658825 10.2658825 10.2658825 10.2658825 10.343138 10.343138 10.343138 10.343138 10.420393 10.420393 10.420393 10.420393 10.420393 10.420393 10.343138 10.343138 10.343138 10.343138 10.2658825 10.2658825 10.2658825 10.188628 10.188628 10.111373 10.111373 10.034119 9.956863 9.956863 9.956863 9.879608 9.802354 9.802354 9.725099 9.725099 9.725099 9.647843 9.647843 9.570589 9.570589 9.570589
11.501962 11.501962 11.501962 11.579216 11.579216 11.579216 11.501962 11.501962 11.501962 11.501962 11.579216 11.656471 11.733726 11.656471 11.501962 11.424706 11.347451 11.270197 11.270197 11.270197 11.270197 11.270197 11.270197 11.270197 11.270197 11.192942 11.192942 11.192942 11.192942 11.192942 11.192942 11.192942 11.192942 11.192942 11.192942 11.115686 11.115686 11.115686 11.115686 11.115686 11.038432 11.038432 11.038432 11.038432 11.038432 11.038432 11.038432 11.115686 11.115686 11.115686 11.192942 11.192942 11.192942 11.115686 11.038432 11.038432 10.961177 10.883923 10.806667 10.729412 10.729412 10.729412 10.729412 10.652158 10.652158 10.652158 10.652158 10.652158 10.574903 10.574903 10.574903 10.574903 10.574903 10.574903 10.497647 10.497647 10.497647 10.497647 10.497647 10.497647 10.497647 10.497647 10.497647 10.497647 10.497647 10.574903 10.574903 10.574903 10.574903 10.574903 10.574903 10.574903 10.574903 10.574903 10.574903 10.574903 10.574903 10.574903 10.497647 10.497647 10.497647 10.420393 10.420393 10.420393 10.343138 10.343138 10.343138 10.2658825 10.2658825 10.2658825 10.188628 10.188628 10.188628 10.111373 10.111373 10.111373 10.034119 10.034119 10.034119 9.956863 9.956863 9.956863 9.956863 9.879608 9.879608 9.879608 9.802354 9.802354 9.802354 9.802354 9.725099 9.725099 9.725099 9.725099 9.725099 9.725099 9.725099 9.725099 9.725099 9.725099 9.725099 9.725099 9.725099 9.725099 9.725099 9.725099 9.725099 9.725099 9.725099 9.725099 9.725099 9.725099 9.725099 9.725099 11.192942 11.192942 11.192942 11.192942 12.73804 12.73804 12.73804 12.73804 12.73804 12.73804 12.73804 12.73804 12.73804 12.73804 12.73804 12.73804 12.73804 12.73804 12.73804 12.73804 12.73804 12.73804 12.73804 12.73804 12.73804 12.73804 12.73804 12.73804 12.73804 12.73804 12.73804 12.73804 12.73804 12.73804 12.73804 12.73804 12.73804 12.73804 12.73804 12.73804 12.73804 12.73804 12.73804 12.73804 12.73804 12.73804 12.73804 12.73804 12.73804 12.73804 12.73804 12.73804 12.73804 12.73804 12.73804 12.73804 12.73804 12.73804 12.73804 12.73804 12.73804 12.73804 12.73804 12.73804 12.73804 12.73804 12.73804 12.73804 12.73804 12.73804 12.73804 11.888236 11.810981 11.733726 11.656471 11.579216 11.501962 11.347451 11.270197 11.192942 11.115686 11.038432 10.961177 10.883923 10.806667 10.729412 10.652158 10.574903 10.574903 10.497647 10.497647 10.420393 10.420393 10.420393 10.420393 10.343138 10.343138 10.343138 10.343138 10.343138 10.343138 10.343138 10.343138 10.343138 10.343138 10.343138 10.343138 10.343138 10.343138 10.343138 10.343138 10.343138 10.2658825 10.2658825 10.2658825 10.2658825 10.2658825 10.2658825 10.2658825 10.2658825 10.2658825 10.2658825 10.2658825 10.2658825 10.2658825 10.2658825 10.343138 10.343138 10.343138 10.420393 10.420393 10.420393 10.420393 10.420393 10.420393 10.420393 10.420393 10.420393 10.343138 10.343138 10.343138 10.2658825 10.2658825 10.2658825 10.188628 10.188628 10.111373 10.034119 10.034119 9.956863 9.956863 9.879608 9.879608 9.802354 9.802354 9.725099 9.725099 9.725099 9.647843 9.647843 9.570589 9.570589 9.570589
11.501962 11.501962 11.501962 11.501962 11.501962 11.501962 11.501962 11.424706 11.424706 11.424706 11.424706 11.501962 11.579216 11.579216 11.424706 11.347451 11.347451 11.270197 11.270197 11.270197 11.270197 11.192942 11.192942 11.192942 11.192942 11.192942 11.192942 11.192942 11.192942 11.192942 11.192942 11.192942 11.192942 11.192942 11.115686 11.115686 11.115686 11.115686 11.115686 11.115686 11.115686 11.038432 11.038432 11.038432 11.038432 11.038432 11.038432 11.115686 11.115686 11.115686 11.115686 11.192942 11.192942 11.115686 11.115686 11.038432 10.961177 10.883923 10.883923 10.806667 10.806667 10.729412 10.729412 10.729412 10.729412 10.729412 10.652158 10.652158 10.652158 10.652158 10.652158 10.574903 10.574903 10.574903 10.574903 10.574903 10.574903 10.497647 10.497647 10.497647 10.574903 10.574903 10.574903 10.574903 10.574903 10.574903 10.574903 10.574903 10.574903 10.574903 10.574903 10.574903 10.574903 10.574903 10.574903 10.574903 10.574903 10.574903 10.497647 10.497647 10.497647 10.420393 10.420393 10.420393 10.343138 10.343138 10.343138 10.2658825 10.2658825 10.2658825 10.188628 10.188628 10.188628 10.188628 10.111373 10.111373 10.111373 10.034119 10.034119 10.034119 9.956863 9.956863 9.956863 9.879608 9.879608 9.879608 9.879608 9.802354 9.802354 9.802354 9.725099 9.725099 9.725099 9.647843 9.647843 9.647843 9.647843 9.647843 9.647843 9.647843 9.647843 9.647843 9.647843 9.647843 9.647843 9.647843 9.647843 9.647843 9.647843 9.647843 9.647843 9.647843 9.647843 9.647843 9.647843 9.647843 11.192942 11.192942 11.192942 12.660785 12.660785 12.660785 12.660785 12.660785 12.660785 12.660785 12.660785 12.660785 12.660785 12.660785 12.660785 12.660785 12.660785 12.660785 12.660785 12.660785 12.660785 12.660785 12.660785 12.660785 12.660785 12.660785 12.660785 12.660785 12.660785 12.660785 12.660785 12.660785 12.660785 12.660785 12.660785 12.660785 12.660785 12.660785 12.660785 12.660785 12.660785 12.660785 12.660785 12.660785 12.660785 12.660785 12.660785 12.660785 12.660785 12.660785 12.660785 12.660785 12.660785 12.660785 12.660785 12.660785 12.660785 12.660785 12.660785 12.660785 12.660785 12.660785 12.660785 12.660785 12.660785 12.660785 12.660785 12.660785 11.96549 11.888236 11.810981 11.733726 11.579216 11.501962 11.347451 11.270197 11.192942 11.115686 11.115686 10.961177 10.883923 10.806667 10.729412 10.652158 10.652158 10.574903 10.497647 10.497647 10.497647 10.420393 10.420393 10.343138 10.343138 10.343138 10.343138 10.343138 10.343138 10.2658825 10.2658825 10.2658825 10.2658825 10.2658825 10.2658825 10.2658825 10.2658825 10.2658825 10.2658825 10.2658825 10.2658825 10.2658825 10.2658825 10.2658825 10.2658825 10.2658825 10.2658825 10.2658825 10.2658825 10.2658825 10.2658825 10.2658825 10.2658825 10.2658825 10.2658825 10.343138 10.343138 10.343138 10.420393 10.420393 10.420393 10.497647 10.497647 10.497647 10.497647 10.420393 10.420393 10.420393 10.420393 10.343138 10.343138 10.2658825 10.2658825 10.2658825 10.188628 10.188628 10.111373 10.034119 10.034119 9.956863 9.956863 9.879608 9.879608 9.802354 9.802354 9.725099 9.725099 9.725099 9.647843 9.647843 9.570589 9.570589 9.570589
11.424706 11.424706 11.424706 11.424706 11.424706 11.424706 11.424706 11.424706 11.424706 11.347451 11.347451 11.424706 11.501962 11.424706 11.424706 11.347451 11.270197 11.270197 11.192942 11.192942 11.192942 11.192942 11.192942 11.192942 11.192942 11.192942 11.192942 11.192942 11.192942 11.192942 11.115686 11.115686 11.115686 11.115686 11.115686 11.115686 11.115686 11.115686 11.115686 11.115686 11.115686 11.115686 11.038432 11.038432 11.038432 11.038432 11.115686 11.115686 11.115686 11.115686 11.115686 11.115686 11.115686 11.115686 11.115686 11.115686 11.038432 10.961177 10.883923 10.883923 10.806667 10.806667 10.806667 10.806667 10.729412 10.729412 10.729412 10.729412 10.729412 10.652158 10.652158 10.652158 10.652158 10.652158 10.574903 10.574903 10.574903 10.574903 10.574903 10.574903 10.574903 10.574903 10.574903 10.574903 10.574903 10.574903 10.574903 10.574903 10.574903 10.574903 10.574903 10.574903 10.574903 10.574903 10.574903 10.574903 10.574903 10.574903 10.574903 10.497647 10.497647 10.497647 10.420393 10.420393 10.420393 10.343138 10.343138 10.2658825 10.2658825 10.2658825 10.2658825 10.188628 10.188628 10.188628 10.111373 10.111373 10.111373 10.034119 10.034119 10.034119 9.956863 9.956863 9.956863 9.956863 9.879608 9.879608 9.879608 9.802354 9.802354 9.802354 9.725099 9.725099 9.725099 9.725099 9.647843 9.647843 9.647843 9.647843 9.647843 9.647843 9.647843 9.647843 9.647843 9.647843 9.647843 9.647843 9.647843 9.647843 9.647843 9.647843 9.647843 9.647843 9.647843 9.647843 9.647843 9.647843 9.725099 11.115686 11.115686 11.192942 12.506275 12.506275 12.506275 12.506275 12.506275 12.506275 12.506275 12.506275 12.506275 12.506275 12.506275 12.506275 12.506275 12.506275 12.506275 12.506275 12.506275 12.506275 12.506275 12.506275 12.506275 12.506275 12.506275 12.506275 12.506275 12.506275 12.506275 12.506275 12.506275 12.506275 12.506275 12.506275 12.506275 12.506275 12.506275 12.506275 12.506275 12.506275 12.506275 12.506275 12.506275 12.506275 12.506275 12.506275 12.506275 12.506275 12.506275 12.506275 12.506275 12.506275 12.506275 12.506275 12.506275 12.506275 12.506275 12.506275 12.506275 12.506275 12.506275 12.506275 12.506275 12.42902 12.42902 12.042746 11.888236 11.810981 11.810981 11.656471 11.501962 11.424706 11.347451 11.270197 11.192942 11.115686 11.038432 10.961177 10.806667 10.729412 10.652158 10.652158 10.574903 10.574903 10.497647 10.497647 10.420393 10.420393 10.343138 10.343138 10.343138 10.2658825 10.2658825 10.2658825 10.2658825 10.2658825 10.2658825 10.188628 10.188628 10.188628 10.188628 10.188628 10.188628 10.188628 10.188628 10.188628 10.188628 10.188628 10.188628 10.188628 10.2658825 10.2658825 10.2658825 10.2658825 10.2658825 10.2658825 10.2658825 10.2658825 10.2658825 10.343138 10.343138 10.343138 10.420393 10.420393 10.420393 10.497647 10.497647 10.497647 10.497647 10.497647 10.497647 10.497647 10.420393 10.420393 10.420393 10.343138 10.343138 10.2658825 10.2658825 10.188628 10.188628 10.111373 10.111373 10.034119 10.034119 9.956863 9.956863 9.879608 9.879608 9.802354 9.802354 9.725099 9.725099 9.725099 9.647843 9.647843 9.570589 9.570589 9.570589
11.424706 11.424706 11.424706 11.424706 11.424706 11.424706 11.347451 11.347451 11.347451 11.347451 11.270197 11.347451 11.424706 11.424706 11.347451 11.347451 11.270197 11.270197 11.192942 11.192942 11.192942 11.192942 11.192942 11.192942 11.192942 11.192942 11.115686 11.115686 11.115686 11.115686 11.115686 11.115686 11.115686 11.115686 11.115686 11.115686 11.115686 11.115686 11.115686 11.115686 11.115686 11.038432 11.038432 11.038432 11.038432 11.038432 11.038432 11.038432 11.115686 11.115686 11.115686 11.115686 11.115686 11.115686 11.115686 11.115686 11.038432 11.038432 10.961177 10.883923 10.883923 10.883923 10.806667 10.806667 10.806667 10.806667 10.806667 10.729412 10.729412 10.729412 10.729412 10.729412 10.652158 10.652158 10.652158 10.652158 10.652158 10.574903 10.574903 10.574903 10.574903 10.574903 10.574903 10.574903 10.652158 10.652158 10.652158 10.652158 10.652158 10.652158 10.652158 10.652158 10.652158 10.652158 10.652158 10.652158 10.574903 10.574903 10.574903 10.497647 10.497647 10.497647 10.420393 10.420393 10.420393 10.343138 10.343138 10.343138 10.2658825 10.2658825 10.2658825 10.188628 10.188628 10.188628 10.111373 10.111373 10.111373 10.034119 10.034119 10.034119 9.956863 9.956863 9.956863 9.956863 9.879608 9.879608 9.879608 9.802354 9.802354 9.802354 9.725099 9.725099 9.725099 9.725099 9.647843 9.647843 9.647843 9.647843 9.647843 9.647843 9.647843 9.647843 9.647843 9.647843 9.647843 9.647843 9.647843 9.647843 9.647843 9.647843 9.647843 9.647843 9.647843 9.647843 9.647843 9.647843 9.725099 11.115686 11.115686 11.115686 12.42902 12.42902 12.42902 12.42902 12.42902 12.42902 12.42902 12.42902 12.42902 12.42902 12.42902 12.42902 12.42902 12.42902 12.42902 12.42902 12.42902 12.42902 12.42902 12.42902 12.42902 12.42902 12.42902 12.42902 12.42902 12.42902 12.42902 12.42902 12.42902 12.42902 12.42902 12.42902 12.42902 12.42902 12.42902 12.42902 12.42902 12.42902 12.42902 12.42902 12.42902 12.42902 12.42902 12.42902 12.42902 12.42902 12.42902 12.42902 12.42902 12.42902 12.42902 12.42902 12.42902 12.42902 12.42902 12.42902 12.42902 12.42902 12.42902 12.42902 12.42902 12.120001 12.042746 11.96549 11.888236 11.810981 11.656471 11.579216 11.501962 11.424706 11.347451 11.270197 11.192942 11.115686 10.961177 10.883923 10.806667 10.729412 10.652158 10.574903 10.574903 10.497647 10.497647 10.420393 10.420393 10.420393 10.343138 10.343138 10.2658825 10.2658825 10.2658825 10.2658825 10.2658825 10.2658825 10.188628 10.188628 10.188628 10.188628 10.188628 10.188628 10.188628 10.188628 10.188628 10.188628 10.188628 10.188628 10.188628 10.188628 10.188628 10.188628 10.188628 10.2658825 10.2658825 10.2658825 10.2658825 10.2658825 10.343138 10.343138 10.343138 10.420393 10.420393 10.497647 10.497647 10.497647 10.497647 10.497647 10.497647 10.497647 10.497647 10.497647 10.420393 10.420393 10.420393 10.343138 10.343138 10.2658825 10.2658825 10.188628 10.188628 10.111373 10.111373 10.034119 9.956863 9.956863 9.956863 9.879608 9.879608 9.802354 9.802354 9.725099 9.725099 9.725099 9.647843 9.647843 9.570589 9.570589 9.570589
11.347451 11.347451 11.424706 11.347451 11.347451 11.347451 11.347451 11.270197 11.270197 11.270197 11.270197 11.192942 11.270197 11.347451 11.347451 11.270197 11.270197 11.192942 11.192942 11.192942 11.192942 11.192942 11.115686 11.115686 11.115686 11.115686 11.115686 11.115686 11.115686 11.115686 11.115686 11.115686 11.115686 11.115686 11.115686 11.115686 11.115686 11.038432 11.038432 11.038432 11.038432 11.038432 11.038432 11.038432 11.038432 11.038432 11.038432 11.038432 11.038432 11.038432 11.038432 11.115686 11.115686 11.115686 11.115686 11.115686 11.115686 11.038432 10.961177 10.961177 10.883923 10.883923 10.883923 10.883923 10.883923 10.806667 10.806667 10.806667 10.806667 10.806667 10.729412 10.729412 10.729412 10.729412 10.729412 10.652158 10.652158 10.652158 10.574903 10.574903 10.652158 10.652158 10.652158 10.652158 10.652158 10.652158 10.652158 10.652158 10.652158 10.652158 10.652158 10.652158 10.652158 10.652158 10.652158 10.652158 10.574903 10.574903 10.574903 10.497647 10.497647 10.497647 10.420393 10.420393 10.420393 10.343138 10.343138 10.343138 10.2658825 10.2658825 10.2658825 10.188628 10.188628 10.188628 10.111373 10.111373 10.111373 10.034119 10.034119 10.034119 10.034119 9.956863 9.956863 9.956863 9.879608 9.879608 9.879608 9.802354 9.802354 9.802354 9.802354 9.725099 9.725099 9.725099 9.647843 9.647843 9.647843 9.647843 9.570589 9.570589 9.570589 9.570589 9.570589 9.570589 9.570589 9.570589 9.570589 9.570589 9.570589 9.570589 9.570589 9.570589 9.570589 9.570589 9.647843 9.647843 9.725099 9.725099 11.038432 11.115686 11.115686 12.351766 12.351766 12.351766 12.351766 12.351766 12.351766 12.351766 12.351766 12.351766 12.351766 12.351766 12.351766 12.351766 12.351766 12.351766 12.351766 12.351766 12.351766 12.351766 12.351766 12.351766 12.351766 12.351766 12.351766 12.351766 12.351766 12.351766 12.351766 12.351766 12.351766 12.351766 12.351766 12.351766 12.351766 12.351766 12.351766 12.351766 12.351766 12.351766 12.351766 12.351766 12.351766 12.351766 12.351766 12.351766 12.351766 12.351766 12.351766 12.351766 12.351766 12.351766 12.351766 12.351766 12.351766 12.351766 12.351766 12.351766 12.351766 12.351766 12.197255 12.120001 12.042746 11.96549 11.888236 11.733726 11.579216 11.501962 11.424706 11.424706 11.347451 11.270197 11.192942 11.038432 10.883923 10.806667 10.729412 10.729412 10.652158 10.574903 10.497647 10.497647 10.497647 10.420393 10.420393 10.343138 10.343138 10.2658825 10.2658825 10.2658825 10.2658825 10.2658825 10.2658825 10.188628 10.188628 10.188628 10.188628 10.188628 10.188628 10.188628 10.188628 10.188628 10.188628 10.188628 10.188628 10.188628 10.188628 10.188628 10.188628 10.188628 10.188628 10.188628 10.2658825 10.2658825 10.2658825 10.343138 10.343138 10.343138 10.420393 10.420393 10.497647 10.497647 10.497647 10.497647 10.497647 10.497647 10.497647 10.497647 10.497647 10.497647 10.420393 10.420393 10.420393 10.343138 10.343138 10.2658825 10.2658825 10.188628 10.188628 10.111373 10.034119 10.034119 9.956863 9.956863 9.956863 9.879608 9.879608 9.802354 9.802354 9.725099 9.725099 9.725099 9.647843 9.647843 9.570589 9.570589 9.570589
11.347451 11.347451 11.347451 11.347451 11.270197 11.270197 11.270197 11.270197 11.192942 11.192942 11.192942 11.192942 11.192942 11.270197 11.347451 11.270197 11.270197 11.192942 11.115686 11.115686 11.115686 11.115686 11.115686 11.115686 11.115686 11.115686 11.115686 11.115686 11.115686 11.115686 11.115686 11.115686 11.038432 11.038432 11.038432 11.038432 11.038432 11.038432 11.038432 11.038432 11.038432 11.038432 11.038432 11.038432 11.038432 11.038432 11.038432 11.038432 11.038432 11.038432 11.038432 11.038432 11.038432 11.038432 11.115686 11.115686 11.115686 11.115686 11.038432 10.961177 10.961177 10.961177 10.961177 10.883923 10.883923 10.883923 10.883923 10.883923 10.806667 10.806667 10.806667 10.806667 10.806667 10.729412 10.729412 10.729412 10.652158 10.652158 10.652158 10.574903 10.574903 10.574903 10.574903 10.652158 10.652158 10.652158 10.652158 10.652158 10.652158 10.652158 10.652158 10.652158 10.652158 10.652158 10.652158 10.652158 10.574903 10.574903 10.574903 10.574903 10.497647 10.497647 10.497647 10.420393 10.420393 10.343138 10.343138 10.343138 10.2658825 10.2658825 10.2658825 10.188628 10.188628 10.188628 10.188628 10.111373 10.111373 10.111373 10.034119 10.034119 10.034119 9.956863 9.956863 9.956863 9.879608 9.879608 9.879608 9.879608 9.802354 9.802354 9.802354 9.725099 9.725099 9.725099 9.647843 9.647843 9.647843 9.647843 9.570589 9.570589 9.570589 9.570589 9.570589 9.570589 9.570589 9.570589 9.570589 9.570589 9.570589 9.570589 9.570589 9.570589 9.570589 9.570589 9.647843 9.647843 9.725099 9.725099 10.034119 11.038432 11.038432 11.115686 12.27451 12.27451 12.27451 12.27451 12.27451 12.27451 12.27451 12.27451 12.27451 12.27451 12.27451 12.27451 12.27451 12.27451 12.27451 12.27451 12.27451 12.27451 12.27451 12.27451 12.27451 12.27451 12.27451 12.27451 12.27451 12.27451 12.27451 12.27451 12.27451 12.27451 12.27451 12.27451 12.27451 12.27451 12.27451 12.27451 12.27451 12.27451 12.27451 12.27451 12.27451 12.27451 12.27451 12.27451 12.27451 12.27451 12.27451 12.27451 12.27451 12.27451 12.27451 12.27451 12.27451 12.27451 12.27451 12.27451 12.27451 12.197255 12.120001 12.120001 11.96549 11.888236 11.733726 11.656471 11.579216 11.501962 11.424706 11.347451 11.270197 11.192942 11.038432 10.961177 10.883923 10.806667 10.729412 10.652158 10.652158 10.574903 10.497647 10.497647 10.497647 10.420393 10.420393 10.343138 10.343138 10.2658825 10.2658825 10.2658825 10.2658825 10.2658825 10.188628 10.188628 10.188628 10.188628 10.188628 10.188628 10.188628 10.188628 10.188628 10.188628 10.188628 10.188628 10.188628 10.188628 10.188628 10.188628 10.188628 10.188628 10.188628 10.188628 10.2658825 10.2658825 10.2658825 10.343138 10.343138 10.420393 10.420393 10.497647 10.497647 10.497647 10.574903 10.574903 10.574903 10.574903 10.574903 10.497647 10.497647 10.497647 10.420393 10.420393 10.420393 10.343138 10.2658825 10.2658825 10.188628 10.188628 10.111373 10.111373 10.034119 10.034119 9.956863 9.956863 9.879608 9.879608 9.879608 9.802354 9.802354 9.725099 9.725099 9.725099 9.647843 9.647843 9.570589 9.570589 9.570589
11.270197 11.270197 11.270197 11.270197 11.270197 11.192942 11.192942 11.192942 11.192942 11.115686 11.115686 11.115686 11.115686 11.115686 11.192942 11.270197 11.192942 11.192942 11.115686 11.115686 11.115686 11.115686 11.115686 11.115686 11.115686 11.115686 11.115686 11.115686 11.038432 11.038432 11.038432 11.038432 11.038432 11.038432 11.038432 11.038432 11.038432 11.038432 11.038432 11.038432 11.038432 11.038432 11.038432 11.038432 11.038432 11.038432 11.038432 11.038432 11.038432 11.038432 11.038432 11.038432 11.038432 11.038432 11.038432 11.038432 11.115686 11.115686 11.038432 11.038432 11.038432 10.961177 10.961177 10.961177 10.961177 10.961177 10.883923 10.883923 10.883923 10.883923 10.883923 10.806667 10.806667 10.806667 10.729412 10.729412 10.652158 10.652158 10.652158 10.652158 10.574903 10.574903 10.574903 10.574903 10.574903 10.497647 10.729412 10.729412 10.729412 10.729412 10.729412 10.729412 10.729412 10.729412 10.652158 10.652158 10.652158 10.574903 10.574903 10.574903 10.497647 10.497647 10.497647 10.420393 10.420393 10.420393 10.343138 10.343138 10.2658825 10.2658825 10.2658825 10.2658825 10.188628 10.188628 10.188628 10.111373 10.111373 10.111373 10.034119 10.034119 10.034119 9.956863 9.956863 9.956863 9.956863 9.879608 9.879608 9.879608 9.802354 9.802354 9.802354 9.725099 9.725099 9.725099 9.725099 9.647843 9.647843 9.647843 9.570589 9.570589 9.570589 9.570589 9.570589 9.570589 9.570589 9.570589 9.570589 9.570589 9.570589 9.570589 9.570589 9.570589 9.570589 9.570589 9.647843 9.647843 9.725099 9.725099 9.725099 11.038432 11.038432 11.038432 11.038432 12.120001 12.120001 12.120001 12.120001 12.120001 12.120001 12.120001 12.120001 12.120001 12.120001 12.120001 12.120001 12.120001 12.120001 12.120001 12.120001 12.120001 12.120001 12.120001 12.120001 12.120001 12.120001 12.120001 12.120001 12.120001 12.120001 12.120001 12.120001 12.120001 12.120001 12.120001 12.120001 12.120001 12.120001 12.120001 12.120001 12.120001 12.120001 12.120001 12.120001 12.120001 12.120001 12.120001 12.120001 12.120001 12.120001 12.120001 12.120001 12.120001 12.120001 12.120001 12.120001 12.120001 12.120001 12.120001 12.120001 12.120001 12.120001 12.042746 11.96549 11.733726 11.733726 11.656471 11.579216 11.501962 11.424706 11.347451 11.270197 11.115686 11.038432 10.883923 10.883923 10.806667 10.729412 10.652158 10.652158 10.574903 10.497647 10.497647 10.497647 10.420393 10.420393 10.343138 10.343138 10.2658825 10.2658825 10.2658825 10.2658825 10.2658825 10.188628 10.188628 10.188628 10.188628 10.188628 10.188628 10.188628 10.188628 10.188628 10.188628 10.188628 10.188628 10.188628 10.188628 10.188628 10.188628 10.188628 10.188628 10.188628 10.188628 10.2658825 10.2658825 10.343138 10.343138 10.420393 10.420393 10.497647 10.497647 10.497647 10.574903 10.574903 10.574903 10.574903 10.574903 10.574903 10.497647 10.497647 10.497647 10.420393 10.420393 10.343138 10.343138 10.2658825 10.2658825 10.188628 10.188628 10.111373 10.111373 10.034119 10.034119 9.956863 9.956863 9.879608 9.879608 9.879608 9.802354 9.802354 9.725099 9.725099 9.725099 9.647843 9.647843 9.570589 9.570589 9.493334
11.270197 11.270197 11.192942 11.192942 11.192942 11.192942 11.115686 11.115686 11.115686 11.115686 11.115686 11.115686 11.038432 11.038432 11.038432 11.038432 11.038432 11.038432 11.115686 11.115686 11.115686 11.115686 11.115686 11.115686 11.038432 11.038432 11.038432 11.038432 11.038432 11.038432 11.038432 11.038432 11.038432 11.038432 11.038432 11.038432 11.038432 11.038432 11.038432 10.961177 10.961177 10.961177 11.038432 11.038432 11.038432 11.038432 11.038432 11.038432 11.038432 11.038432 11.038432 11.038432 11.038432 11.038432 11.038432 11.038432 11.038432 11.038432 11.038432 11.038432 11.038432 11.038432 11.038432 11.038432 10.961177 10.961177 10.961177 10.961177 10.961177 10.883923 10.883923 10.883923 10.806667 10.806667 10.729412 10.729412 10.652158 10.652158 10.652158 10.652158 10.652158 10.574903 10.574903 10.574903 10.574903 10.497647 10.497647 10.497647 10.574903 10.729412 10.729412 10.729412 10.729412 10.729412 10.652158 10.652158 10.652158 10.574903 10.574903 10.574903 10.497647 10.497647 10.497647 10.420393 10.420393 10.420393 10.343138 10.2658825 10.2658825 10.2658825 10.2658825 10.2658825 10.188628 10.188628 10.188628 10.111373 10.111373 10.111373 10.034119 10.034119 10.034119 9.956863 9.956863 9.956863 9.956863 9.879608 9.879608 9.879608 9.802354 9.802354 9.802354 9.802354 9.725099 9.725099 9.725099 9.647843 9.647843 9.647843 9.570589 9.570589 9.570589 9.570589 9.493334 9.493334 9.493334 9.493334 9.493334 9.493334 9.493334 9.493334 9.493334 9.570589 9.570589 9.570589 9.647843 9.647843 9.725099 9.725099 9.725099 10.111373 10.961177 11.038432 11.038432 11.038432 12.042746 12.042746 12.042746 12.042746 12.042746 12.042746 12.042746 12.042746 12.042746 12.042746 12.042746 12.042746 12.042746 12.042746 12.042746 12.042746 12.042746 12.042746 12.042746 12.042746 12.042746 12.042746 12.042746 12.042746 12.042746 12.042746 12.042746 12.042746 12.042746 12.042746 12.042746 12.042746 12.042746 12.042746 12.042746 12.042746 12.042746 12.042746 12.042746 12.042746 12.042746 12.042746 12.042746 12.042746 12.042746 12.042746 12.042746 12.042746 12.042746 12.042746 12.042746 12.042746 12.042746 12.042746 12.042746 12.042746 12.042746 11.96549 11.810981 11.733726 11.656471 11.579216 11.501962 11.424706 11.424706 11.347451 11.115686 11.038432 10.961177 10.883923 10.883923 10.806667 10.729412 10.652158 10.652158 10.574903 10.497647 10.497647 10.420393 10.420393 10.420393 10.343138 10.343138 10.2658825 10.2658825 10.2658825 10.2658825 10.2658825 10.2658825 10.188628 10.188628 10.188628 10.188628 10.188628 10.188628 10.188628 10.188628 10.188628 10.188628 10.188628 10.188628 10.188628 10.188628 10.188628 10.188628 10.188628 10.188628 10.188628 10.2658825 10.2658825 10.343138 10.343138 10.420393 10.497647 10.497647 10.497647 10.574903 10.574903 10.574903 10.574903 10.574903 10.574903 10.574903 10.497647 10.497647 10.497647 10.420393 10.420393 10.343138 10.343138 10.2658825 10.2658825 10.188628 10.111373 10.111373 10.034119 10.034119 10.034119 9.956863 9.956863 9.879608 9.879608 9.879608 9.802354 9.802354 9.725099 9.725099 9.725099 9.647843 9.647843 9.570589 9.570589 9.493334
11.192942 11.192942 11.192942 11.115686 11.115686 11.115686 11.115686 11.115686 11.038432 11.038432 11.038432 11.038432 11.038432 11.038432 11.038432 10.961177 10.961177 10.961177 10.961177 10.961177 10.883923 10.961177 11.038432 11.038432 11.038432 11.038432 11.038432 11.038432 11.038432 11.038432 11.038432 11.038432 11.038432 11.038432 11.038432 10.961177 10.961177 10.961177 10.961177 10.961177 10.961177 10.961177 11.038432 11.038432 11.038432 11.038432 11.115686 11.038432 11.038432 11.038432 11.038432 11.038432 11.038432 11.038432 11.038432 11.038432 11.038432 11.038432 11.038432 11.038432 11.038432 11.115686 11.038432 11.038432 11.038432 11.038432 11.038432 10.961177 10.961177 10.961177 10.883923 10.883923 10.806667 10.806667 10.729412 10.729412 10.729412 10.652158 10.652158 10.652158 10.652158 10.574903 10.574903 10.574903 10.574903 10.574903 10.497647 10.420393 10.343138 10.188628 10.111373 10.034119 9.879608 9.802354 9.725099 10.652158 10.652158 10.574903 10.574903 10.574903 10.497647 10.497647 10.497647 10.420393 10.420393 10.420393 10.343138 10.2658825 10.2658825 10.2658825 10.2658825 10.2658825 10.188628 10.188628 10.188628 10.188628 10.111373 10.111373 10.111373 10.034119 10.034119 10.034119 9.956863 9.956863 9.956863 9.879608 9.879608 9.879608 9.879608 9.802354 9.802354 9.802354 9.725099 9.725099 9.725099 9.647843 9.647843 9.647843 9.647843 9.570589 9.570589 9.570589 9.493334 9.493334 9.493334 9.493334 9.493334 9.493334 9.493334 9.493334 9.493334 9.570589 9.570589 9.647843 9.647843 9.647843 9.725099 9.725099 9.725099 9.802354 10.806667 10.961177 10.961177 11.038432 11.038432 11.96549 11.96549 11.96549 11.96549 11.96549 11.96549 11.96549 11.96549 11.96549 11.96549 11.96549 11.96549 11.96549 11.96549 11.96549 11.96549 11.96549 11.96549 11.96549 11.96549 11.96549 11.96549 11.96549 11.96549 11.96549 11.96549 11.96549 11.96549 11.96549 11.96549 11.96549 11.96549 11.96549 11.96549 11.96549 11.96549 11.96549 11.96549 11.96549 11.96549 11.96549 11.96549 11.96549 11.96549 11.96549 11.96549 11.96549 11.96549 11.96549 11.96549 11.96549 11.96549 11.96549 11.96549 11.96549 11.96549 11.810981 11.810981 11.733726 11.656471 11.579216 11.501962 11.424706 11.347451 11.192942 11.115686 11.038432 10.961177 10.883923 10.806667 10.806667 10.729412 10.652158 10.574903 10.574903 10.497647 10.497647 10.497647 10.420393 10.420393 10.343138 10.343138 10.2658825 10.2658825 10.2658825 10.2658825 10.2658825 10.2658825 10.188628 10.188628 10.188628 10.188628 10.188628 10.188628 10.188628 10.188628 10.188628 10.188628 10.188628 10.188628 10.188628 10.188628 10.188628 10.188628 10.188628 10.188628 10.2658825 10.2658825 10.2658825 10.343138 10.343138 10.420393 10.497647 10.574903 10.574903 10.574903 10.574903 10.574903 10.574903 10.574903 10.574903 10.574903 10.497647 10.497647 10.497647 10.420393 10.343138 10.343138 10.2658825 10.2658825 10.188628 10.188628 10.111373 10.111373 10.034119 10.034119 9.956863 9.956863 9.956863 9.879608 9.879608 9.879608 9.802354 9.802354 9.725099 9.725099 9.725099 9.647843 9.647843 9.570589 9.570589 9.493334
11.115686 11.115686 11.115686 11.115686 11.115686 11.038432 11.038432 11.038432 11.038432 11.038432 11.038432 10.961177 10.961177 10.961177 10.961177 10.961177 10.961177 10.883923 10.883923 10.883923 10.883923 10.883923 10.883923 10.806667 10.806667 10.883923 11.038432 11.038432 11.038432 11.038432 11.038432 10.961177 10.961177 10.961177 10.961177 10.961177 10.961177 10.961177 10.961177 10.961177 10.961177 10.961177 11.038432 11.038432 11.038432 11.038432 11.115686 11.115686 11.038432 11.038432 11.038432 11.038432 11.038432 11.038432 11.038432 11.038432 11.038432 11.038432 11.038432 11.038432 11.038432 11.038432 11.038432 11.038432 11.115686 11.038432 11.038432 11.038432 10.961177 10.961177 10.883923 10.883923 10.806667 10.806667 10.729412 10.729412 10.729412 10.652158 10.652158 10.652158 10.652158 10.652158 10.574903 10.574903 10.574903 10.497647 10.420393 10.2658825 10.188628 10.111373 9.956863 9.879608 9.802354 9.725099 9.570589 9.493334 9.4160795 9.338824 9.261569 9.184315 9.029804 10.497647 10.497647 10.497647 10.420393 10.420393 10.343138 10.2658825 10.2658825 10.2658825 10.2658825 10.2658825 10.188628 10.188628 10.188628 10.188628 10.111373 10.111373 10.111373 10.034119 10.034119 10.034119 9.956863 9.956863 9.956863 9.956863 9.879608 9.879608 9.879608 9.802354 9.802354 9.802354 9.725099 9.725099 9.725099 9.725099 9.647843 9.647843 9.647843 9.570589 9.570589 9.570589 9.570589 9.493334 9.493334 9.493334 9.493334 9.493334 9.493334 9.493334 9.493334 9.570589 9.570589 9.647843 9.647843 9.647843 9.725099 9.725099 9.725099 9.802354 10.188628 10.729412 10.883923 10.961177 10.961177 11.038432 11.888236 11.888236 11.888236 11.888236 11.888236 11.888236 11.888236 11.888236 11.888236 11.888236 11.888236 11.888236 11.888236 11.888236 11.888236 11.888236 11.888236 11.888236 11.888236 11.888236 11.888236 11.888236 11.888236 11.888236 11.888236 11.888236 11.888236 11.888236 11.888236 11.888236 11.888236 11.888236 11.888236 11.888236 11.888236 11.888236 11.888236 11.888236 11.888236 11.888236 11.888236 11.888236 11.888236 11.888236 11.888236 11.888236 11.888236 11.888236 11.888236 11.888236 11.888236 11.888236 11.888236 11.888236 11.888236 11.810981 11.733726 11.733726 11.656471 11.579216 11.501962 11.424706 11.192942 11.115686 11.038432 11.038432 10.961177 10.883923 10.806667 10.729412 10.729412 10.652158 10.574903 10.574903 10.497647 10.497647 10.497647 10.420393 10.420393 10.343138 10.343138 10.343138 10.2658825 10.2658825 10.2658825 10.2658825 10.2658825 10.2658825 10.188628 10.188628 10.188628 10.188628 10.188628 10.188628 10.188628 10.188628 10.188628 10.188628 10.188628 10.188628 10.188628 10.188628 10.188628 10.188628 10.188628 10.2658825 10.2658825 10.2658825 10.343138 10.420393 10.497647 10.574903 10.574903 10.574903 10.574903 10.574903 10.652158 10.574903 10.574903 10.574903 10.574903 10.497647 10.497647 10.420393 10.420393 10.343138 10.343138 10.2658825 10.2658825 10.188628 10.188628 10.111373 10.111373 10.034119 10.034119 9.956863 9.956863 9.956863 9.879608 9.879608 9.879608 9.802354 9.802354 9.725099 9.725099 9.647843 9.647843 9.647843 9.570589 9.570589 9.493334
11.115686 11.115686 11.038432 11.038432 11.038432 11.038432 11.038432 11.038432 10.961177 10.961177 10.961177 10.961177 10.961177 10.961177 10.883923 10.883923 10.883923 10.883923 10.883923 10.883923 10.883923 10.883923 10.806667 10.806667 10.806667 10.806667 10.883923 10.961177 10.961177 10.961177 10.961177 10.961177 10.961177 10.961177 10.961177 10.961177 10.961177 10.961177 10.961177 10.961177 10.961177 10.961177 11.038432 11.038432 11.038432 11.038432 11.115686 11.115686 11.115686 11.115686 11.038432 11.038432 11.038432 11.038432 11.038432 11.038432 11.038432 11.038432 11.038432 11.038432 11.038432 11.038432 11.038432 11.038432 11.038432 11.038432 11.038432 11.038432 10.961177 10.961177 10.883923 10.883923 10.806667 10.806667 10.729412 10.729412 10.729412 10.729412 10.652158 10.652158 10.652158 10.652158 10.652158 10.574903 10.497647 10.420393 10.2658825 10.188628 10.111373 9.956863 9.879608 9.802354 9.647843 9.570589 9.493334 9.4160795 9.338824 9.261569 9.184315 9.029804 9.029804 9.1070595 10.497647 10.497647 10.420393 10.420393 10.343138 10.2658825 10.2658825 10.2658825 10.2658825 10.188628 10.188628 10.188628 10.188628 10.188628 10.111373 10.111373 10.111373 10.034119 10.034119 10.034119 9.956863 9.956863 9.956863 9.956863 9.879608 9.879608 9.879608 9.802354 9.802354 9.802354 9.725099 9.725099 9.725099 9.725099 9.647843 9.647843 9.647843 9.570589 9.570589 9.570589 9.570589 9.493334 9.493334 9.493334 9.493334 9.4160795 9.493334 9.493334 9.493334 9.570589 9.570589 9.647843 9.647843 9.647843 9.725099 9.725099 9.725099 9.802354 9.879608 10.574903 10.652158 10.806667 10.961177 10.961177 10.961177 11.810981 11.810981 11.810981 11.810981 11.810981 11.810981 11.810981 11.810981 11.810981 11.810981 11.810981 11.810981 11.810981 11.810981 11.810981 11.810981 11.810981 11.810981 11.810981 11.810981 11.810981 11.810981 11.810981 11.810981 11.810981 11.810981 11.810981 11.810981 11.810981 11.810981 11.810981 11.810981 11.810981 11.810981 11.810981 11.810981 11.810981 11.810981 11.810981 11.810981 11.810981 11.810981 11.810981 11.810981 11.810981 11.810981 11.810981 11.810981 11.810981 11.810981 11.810981 11.810981 11.810981 11.810981 11.810981 11.733726 11.656471 11.656471 11.579216 11.501962 11.270197 11.192942 11.115686 11.038432 10.961177 10.961177 10.883923 10.806667 10.729412 10.652158 10.652158 10.574903 10.574903 10.497647 10.497647 10.497647 10.420393 10.420393 10.343138 10.343138 10.343138 10.2658825 10.2658825 10.2658825 10.2658825 10.2658825 10.2658825 10.188628 10.188628 10.188628 10.188628 10.188628 10.188628 10.188628 10.188628 10.188628 10.188628 10.188628 10.188628 10.188628 10.188628 10.188628 10.188628 10.188628 10.2658825 10.2658825 10.2658825 10.343138 10.420393 10.497647 10.574903 10.574903 10.652158 10.652158 10.652158 10.652158 10.652158 10.574903 10.574903 10.574903 10.497647 10.497647 10.420393 10.420393 10.343138 10.2658825 10.2658825 10.188628 10.188628 10.188628 10.111373 10.111373 10.034119 10.034119 9.956863 9.956863 9.956863 9.879608 9.879608 9.879608 9.802354 9.802354 9.725099 9.725099 9.647843 9.647843 9.647843 9.570589 9.570589 9.493334
11.038432 11.038432 11.038432 11.038432 11.038432 11.038432 10.961177 10.961177 10.961177 10.961177 10.961177 10.961177 10.961177 10.961177 10.883923 10.883923 10.883923 10.883923 10.883923 10.883923 10.883923 10.883923 10.806667 10.806667 10.806667 10.806667 10.806667 10.883923 10.961177 10.961177 10.961177 10.961177 10.961177 10.961177 10.961177 10.961177 10.883923 10.883923 10.961177 10.961177 10.961177 10.961177 11.038432 11.038432 11.038432 11.115686 11.115686 11.115686 11.115686 11.115686 11.115686 11.115686 11.038432 11.038432 11.038432 11.038432 11.038432 11.038432 11.038432 11.038432 11.038432 11.038432 11.038432 11.038432 11.038432 11.038432 11.038432 11.038432 10.961177 10.961177 10.883923 10.883923 10.806667 10.806667 10.729412 10.729412 10.729412 10.729412 10.729412 10.652158 10.652158 10.652158 10.574903 10.497647 10.343138 10.2658825 10.188628 10.034119 9.956863 9.879608 9.725099 9.647843 9.570589 9.493334 9.4160795 9.338824 9.261569 9.184315 9.029804 9.029804 9.029804 9.029804 9.261569 10.497647 10.420393 10.420393 10.343138 10.2658825 10.188628 10.188628 10.188628 10.188628 10.188628 10.188628 10.188628 10.188628 10.111373 10.111373 10.111373 10.034119 10.034119 10.034119 9.956863 9.956863 9.956863 9.956863 9.879608 9.879608 9.879608 9.802354 9.802354 9.802354 9.802354 9.725099 9.725099 9.725099 9.647843 9.647843 9.647843 9.647843 9.570589 9.570589 9.570589 9.493334 9.493334 9.493334 9.493334 9.493334 9.493334 9.493334 9.493334 9.570589 9.570589 9.647843 9.647843 9.647843 9.725099 9.725099 9.725099 9.802354 9.802354 10.2658825 10.574903 10.652158 10.729412 10.883923 10.961177 10.961177 11.656471 11.656471 11.656471 11.656471 11.656471 11.656471 11.656471 11.656471 11.656471 11.656471 11.656471 11.656471 11.656471 11.656471 11.656471 11.656471 11.656471 11.656471 11.656471 11.656471 11.656471 11.656471 11.656471 11.656471 11.656471 11.656471 11.656471 11.656471 11.656471 11.656471 11.656471 11.656471 11.656471 11.656471 11.656471 11.656471 11.656471 11.656471 11.656471 11.656471 11.656471 11.656471 11.656471 11.656471 11.656471 11.656471 11.656471 11.656471 11.656471 11.656471 11.656471 11.656471 11.656471 11.656471 11.656471 11.656471 11.579216 11.501962 11.270197 11.270197 11.192942 11.115686 11.038432 10.961177 10.883923 10.883923 10.806667 10.729412 10.652158 10.652158 10.574903 10.574903 10.497647 10.497647 10.497647 10.420393 10.420393 10.420393 10.343138 10.343138 10.2658825 10.2658825 10.2658825 10.2658825 10.2658825 10.2658825 10.188628 10.188628 10.188628 10.188628 10.188628 10.188628 10.188628 10.188628 10.188628 10.188628 10.188628 10.188628 10.188628 10.188628 10.188628 10.188628 10.2658825 10.2658825 10.2658825 10.343138 10.343138 10.420393 10.497647 10.574903 10.652158 10.652158 10.652158 10.652158 10.652158 10.652158 10.574903 10.574903 10.497647 10.497647 10.420393 10.420393 10.343138 10.343138 10.2658825 10.2658825 10.188628 10.188628 10.188628 10.111373 10.111373 10.034119 10.034119 9.956863 9.956863 9.956863 9.879608 9.879608 9.879608 9.802354 9.802354 9.725099 9.725099 9.647843 9.647843 9.570589 9.570589 9.570589 9.493334
11.038432 11.038432 11.038432 11.038432 11.038432 11.038432 10.961177 10.961177 10.961177 10.961177 10.961177 10.961177 10.961177 10.961177 10.883923 10.883923 10.883923 10.883923 10.883923 10.883923 10.883923 10.883923 10.806667 10.806667 10.806667 10.806667 10.806667 10.806667 10.883923 10.961177 10.961177 10.961177 10.883923 10.883923 10.883923 10.883923 10.883923 10.883923 10.961177 10.961177 10.961177 10.961177 11.038432 11.038432 11.038432 11.115686 11.115686 11.115686 11.115686 11.115686 11.115686 11.115686 11.115686 11.038432 11.038432 11.038432 11.038432 11.038432 11.038432 11.038432 11.038432 11.038432 11.038432 10.961177 10.961177 10.961177 10.961177 10.961177 10.961177 10.961177 10.883923 10.883923 10.806667 10.806667 10.806667 10.729412 10.729412 10.729412 10.729412 10.729412 10.652158 10.574903 10.497647 10.343138 10.2658825 10.111373 10.034119 9.956863 9.802354 9.725099 9.647843 9.570589 9.493334 9.4160795 9.338824 9.261569 9.184315 9.1070595 9.029804 9.029804 9.029804 9.029804 9.1070595 10.497647 10.420393 10.343138 10.343138 10.2658825 10.188628 10.188628 10.188628 10.188628 10.188628 10.188628 10.188628 10.188628 10.188628 10.111373 10.111373 10.111373 10.034119 10.034119 10.034119 9.956863 9.956863 9.956863 9.879608 9.879608 9.879608 9.879608 9.802354 9.802354 9.802354 9.725099 9.725099 9.725099 9.647843 9.647843 9.647843 9.647843 9.570589 9.570589 9.570589 9.570589 9.493334 9.493334 9.493334 9.493334 9.493334 9.493334 9.570589 9.570589 9.570589 9.647843 9.647843 9.647843 9.725099 9.725099 9.725099 9.802354 9.802354 9.956863 10.497647 10.497647 10.574903 10.652158 10.806667 10.961177 10.961177 11.579216 11.579216 11.579216 11.579216 11.579216 11.579216 11.579216 11.579216 11.579216 11.579216 11.579216 11.579216 11.579216 11.579216 11.579216 11.579216 11.579216 11.579216 11.579216 11.579216 11.579216 11.579216 11.579216 11.579216 11.579216 11.579216 11.579216 11.579216 11.579216 11.579216 11.579216 11.579216 11.579216 11.579216 11.579216 11.579216 11.579216 11.579216 11.579216 11.579216 11.579216 11.579216 11.579216 11.579216 11.579216 11.579216 11.579216 11.579216 11.579216 11.579216 11.579216 11.579216 11.579216 11.579216 11.579216 11.501962 11.347451 11.270197 11.192942 11.115686 11.115686 11.038432 10.961177 10.883923 10.883923 10.806667 10.729412 10.652158 10.652158 10.574903 10.574903 10.497647 10.497647 10.497647 10.420393 10.420393 10.420393 10.343138 10.343138 10.343138 10.2658825 10.2658825 10.2658825 10.2658825 10.2658825 10.188628 10.188628 10.188628 10.188628 10.188628 10.188628 10.188628 10.188628 10.188628 10.188628 10.188628 10.188628 10.188628 10.188628 10.188628 10.188628 10.2658825 10.2658825 10.2658825 10.343138 10.343138 10.420393 10.497647 10.574903 10.652158 10.652158 10.652158 10.652158 10.652158 10.574903 10.574903 10.497647 10.497647 10.420393 10.420393 10.343138 10.343138 10.2658825 10.2658825 10.2658825 10.188628 10.188628 10.188628 10.111373 10.111373 10.034119 10.034119 9.956863 9.956863 9.956863 9.879608 9.879608 9.879608 9.802354 9.802354 9.725099 9.725099 9.647843 9.647843 9.570589 9.570589 9.493334 9.493334
11.038432 11.038432 11.038432 11.038432 11.038432 11.038432 10.961177 10.961177 10.961177 10.961177 10.961177 10.961177 10.961177 10.961177 10.883923 10.883923 10.883923 10.883923 10.883923 10.883923 10.883923 10.883923 10.806667 10.806667 10.806667 10.806667 10.806667 10.806667 10.806667 10.883923 10.883923 10.883923 10.883923 10.883923 10.883923 10.883923 10.883923 10.883923 10.883923 10.961177 10.961177 10.961177 11.038432 11.038432 11.038432 11.115686 11.115686 11.115686 11.115686 11.115686 11.115686 11.115686 11.115686 11.115686 11.115686 11.038432 11.038432 11.038432 11.038432 11.038432 11.038432 11.038432 10.961177 10.961177 10.961177 10.883923 10.883923 10.883923 10.883923 10.883923 10.883923 10.883923 10.806667 10.806667 10.806667 10.806667 10.729412 10.729412 10.729412 10.652158 10.574903 10.420393 10.343138 10.188628 10.111373 10.034119 9.879608 9.802354 9.725099 9.647843 9.570589 9.493334 9.4160795 9.338824 9.261569 9.184315 9.1070595 9.029804 9.029804 9.029804 9.029804 9.029804 9.1070595 9.261569 10.420393 10.343138 10.2658825 10.2658825 10.188628 10.188628 10.188628 10.188628 10.188628 10.188628 10.188628 10.188628 10.188628 10.111373 10.111373 10.111373 10.034119 10.034119 10.034119 9.956863 9.956863 9.956863 9.956863 9.879608 9.879608 9.879608 9.802354 9.802354 9.802354 9.725099 9.725099 9.725099 9.725099 9.647843 9.647843 9.647843 9.647843 9.570589 9.570589 9.570589 9.570589 9.493334 9.493334 9.493334 9.570589 9.570589 9.570589 9.570589 9.570589 9.647843 9.647843 9.647843 9.725099 9.725099 9.725099 9.802354 9.802354 9.879608 10.420393 10.497647 10.497647 10.497647 10.652158 10.729412 10.883923 10.961177 11.501962 11.501962 11.501962 11.501962 11.501962 11.501962 11.501962 11.501962 11.501962 11.501962 11.501962 11.501962 11.501962 11.501962 11.501962 11.501962 11.501962 11.501962 11.501962 11.501962 11.501962 11.501962 11.501962 11.501962 11.501962 11.501962 11.501962 11.501962 11.501962 11.501962 11.501962 11.501962 11.501962 11.501962 11.501962 11.501962 11.501962 11.501962 11.501962 11.501962 11.501962 11.501962 11.501962 11.501962 11.501962 11.501962 11.501962 11.501962 11.501962 11.501962 11.501962 11.501962 11.501962 11.501962 11.424706 11.347451 11.270197 11.192942 11.115686 11.115686 11.038432 10.961177 10.883923 10.806667 10.729412 10.729412 10.652158 10.652158 10.574903 10.574903 10.497647 10.497647 10.497647 10.420393 10.420393 10.420393 10.343138 10.343138 10.343138 10.2658825 10.2658825 10.2658825 10.2658825 10.2658825 10.2658825 10.188628 10.188628 10.188628 10.188628 10.188628 10.188628 10.188628 10.188628 10.188628 10.188628 10.188628 10.188628 10.188628 10.188628 10.188628 10.2658825 10.2658825 10.2658825 10.343138 10.343138 10.420393 10.420393 10.497647 10.574903 10.652158 10.652158 10.652158 10.574903 10.574903 10.574903 10.497647 10.497647 10.420393 10.420393 10.343138 10.343138 10.2658825 10.2658825 10.2658825 10.188628 10.188628 10.188628 10.111373 10.111373 10.034119 10.034119 9.956863 9.956863 9.956863 9.879608 9.879608 9.879608 9.802354 9.802354 9.725099 9.725099 9.647843 9.647843 9.570589 9.570589 9.493334 8.720785
10.961177 10.961177 10.961177 10.961177 10.961177 10.961177 10.961177 10.961177 10.961177 10.961177 10.961177 10.961177 10.961177 10.961177 10.883923 10.883923 10.883923 10.883923 10.883923 10.883923 10.883923 10.883923 10.806667 10.806667 10.806667 10.806667 10.806667 10.806667 10.806667 10.806667 10.883923 10.883923 10.883923 10.883923 10.883923 10.883923 10.883923 10.883923 10.883923 10.961177 10.961177 10.961177 11.038432 11.038432 11.038432 11.115686 11.115686 11.115686 11.115686 11.115686 11.115686 11.115686 11.115686 11.115686 11.115686 11.115686 11.115686 11.038432 11.038432 11.038432 11.038432 10.961177 10.961177 10.961177 10.883923 10.883923 10.883923 10.806667 10.806667 10.806667 10.806667 10.806667 10.806667 10.806667 10.806667 10.806667 10.806667 10.729412 10.652158 10.497647 10.420393 10.2658825 10.188628 10.111373 9.956863 9.879608 9.802354 9.725099 9.647843 9.570589 9.493334 9.4160795 9.338824 9.261569 9.184315 9.1070595 9.029804 9.029804 9.029804 9.029804 9.029804 9.029804 9.1070595 9.184315 9.4160795 10.343138 10.2658825 10.2658825 10.188628 10.188628 10.188628 10.188628 10.188628 10.188628 10.188628 10.188628 10.188628 10.111373 10.111373 10.111373 10.034119 10.034119 10.034119 9.956863 9.956863 9.956863 9.956863 9.879608 9.879608 9.879608 9.879608 9.802354 9.802354 9.802354 9.725099 9.725099 9.725099 9.725099 9.647843 9.647843 9.647843 9.647843 9.570589 9.570589 9.570589 9.493334 9.493334 9.570589 9.570589 9.570589 9.570589 9.647843 9.647843 9.647843 9.647843 9.647843 9.725099 9.725099 9.725099 9.802354 9.802354 9.879608 10.111373 10.497647 10.497647 10.497647 10.497647 10.574903 10.729412 10.806667 10.883923 11.424706 11.424706 11.424706 11.424706 11.424706 11.424706 11.424706 11.424706 11.424706 11.424706 11.424706 11.424706 11.424706 11.424706 11.424706 11.424706 11.424706 11.424706 11.424706 11.424706 11.424706 11.424706 11.424706 11.424706 11.424706 11.424706 11.424706 11.424706 11.424706 11.424706 11.424706 11.424706 11.424706 11.424706 11.424706 11.424706 11.424706 11.424706 11.424706 11.424706 11.424706 11.424706 11.424706 11.424706 11.424706 11.424706 11.424706 11.424706 11.424706 11.424706 11.424706 11.424706 11.424706 11.424706 11.347451 11.270197 11.192942 11.115686 11.038432 11.038432 10.961177 10.883923 10.806667 10.729412 10.729412 10.652158 10.652158 10.574903 10.574903 10.574903 10.497647 10.497647 10.497647 10.420393 10.420393 10.343138 10.343138 10.343138 10.343138 10.2658825 10.2658825 10.2658825 10.2658825 10.2658825 10.188628 10.188628 10.188628 10.188628 10.188628 10.188628 10.188628 10.188628 10.188628 10.188628 10.188628 10.188628 10.188628 10.188628 10.2658825 10.2658825 10.2658825 10.2658825 10.343138 10.343138 10.420393 10.420393 10.497647 10.574903 10.574903 10.574903 10.574903 10.574903 10.574903 10.497647 10.497647 10.420393 10.420393 10.343138 10.343138 10.343138 10.2658825 10.2658825 10.2658825 10.188628 10.188628 10.188628 10.111373 10.111373 10.034119 10.034119 9.956863 9.956863 9.956863 9.879608 9.879608 9.802354 9.802354 9.802354 9.725099 9.725099 9.647843 9.647843 9.570589 8.720785 8.64353 8.566276
10.806667 10.883923 10.961177 10.961177 10.961177 10.961177 10.961177 10.961177 10.961177 10.961177 10.961177 10.961177 10.961177 10.961177 10.883923 10.883923 10.883923 10.883923 10.883923 10.883923 10.883923 10.883923 10.806667 10.806667 10.806667 10.806667 10.806667 10.806667 10.806667 10.806667 10.806667 10.883923 10.883923 10.883923 10.883923 10.883923 10.883923 10.883923 10.883923 10.961177 10.961177 10.961177 11.038432 11.038432 11.038432 11.115686 11.115686 11.115686 11.115686 11.115686 11.115686 11.115686 11.115686 11.115686 11.115686 11.115686 11.115686 11.038432 11.038432 11.038432 10.961177 10.961177 10.883923 10.883923 10.883923 10.806667 10.806667 10.806667 10.806667 10.806667 10.806667 10.806667 10.806667 10.806667 10.806667 10.806667 10.729412 10.652158 10.497647 10.420393 10.2658825 10.188628 10.111373 9.956863 9.879608 9.802354 9.725099 9.647843 9.570589 9.493334 9.4160795 9.338824 9.261569 9.184315 9.1070595 9.029804 9.029804 9.029804 9.029804 9.029804 9.029804 9.029804 9.1070595 9.1070595 9.338824 9.570589 10.2658825 10.2658825 10.188628 10.188628 10.188628 10.188628 10.188628 10.188628 10.188628 10.188628 10.188628 10.188628 10.111373 10.111373 10.111373 10.034119 10.034119 10.034119 9.956863 9.956863 9.956863 9.956863 9.879608 9.879608 9.879608 9.802354 9.802354 9.802354 9.802354 9.725099 9.725099 9.725099 9.725099 9.647843 9.647843 9.647843 9.570589 9.570589 9.570589 9.570589 9.570589 9.570589 9.570589 9.570589 9.647843 9.647843 9.647843 9.647843 9.725099 9.725099 9.725099 9.725099 9.802354 9.802354 9.802354 9.879608 9.879608 10.2658825 10.420393 10.497647 10.497647 10.497647 10.574903 10.652158 10.806667 10.883923 11.347451 11.347451 11.347451 11.347451 11.347451 11.347451 11.347451 11.347451 11.347451 11.347451 11.347451 11.347451 11.347451 11.347451 11.347451 11.347451 11.347451 11.347451 11.347451 11.347451 11.347451 11.347451 11.347451 11.347451 11.347451 11.347451 11.347451 11.347451 11.347451 11.347451 11.347451 11.347451 11.347451 11.347451 11.347451 11.347451 11.347451 11.347451 11.347451 11.347451 11.347451 11.347451 11.347451 11.347451 11.347451 11.347451 11.347451 11.347451 11.347451 11.347451 11.347451 11.347451 11.347451 11.347451 11.270197 11.192942 11.115686 11.038432 11.038432 10.961177 10.883923 10.806667 10.729412 10.729412 10.652158 10.652158 10.574903 10.574903 10.574903 10.497647 10.497647 10.497647 10.420393 10.420393 10.343138 10.343138 10.343138 10.343138 10.2658825 10.2658825 10.2658825 10.2658825 10.2658825 10.188628 10.188628 10.188628 10.188628 10.188628 10.188628 10.188628 10.188628 10.188628 10.188628 10.188628 10.188628 10.188628 10.188628 10.2658825 10.2658825 10.2658825 10.343138 10.343138 10.343138 10.343138 10.420393 10.420393 10.497647 10.574903 10.574903 10.574903 10.497647 10.497647 10.497647 10.420393 10.420393 10.420393 10.343138 10.343138 10.2658825 10.2658825 10.2658825 10.2658825 10.188628 10.188628 10.188628 10.111373 10.111373 10.034119 10.034119 9.956863 9.956863 9.956863 9.879608 9.879608 9.802354 9.802354 9.725099 9.725099 9.647843 9.647843 8.875295 8.720785 8.64353 8.566276 8.48902
10.729412 10.806667 10.883923 10.883923 10.883923 10.883923 10.883923 10.883923 10.883923 10.883923 10.883923 10.883923 10.961177 10.961177 10.883923 10.883923 10.883923 10.883923 10.883923 10.883923 10.883923 10.883923 10.806667 10.806667 10.806667 10.806667 10.806667 10.806667 10.806667 10.806667 10.729412 10.806667 10.806667 10.806667 10.883923 10.883923 10.883923 10.883923 10.961177 10.961177 10.961177 10.961177 11.038432 11.038432 11.038432 11.115686 11.115686 11.115686 11.115686 11.115686 11.115686 11.115686 11.115686 11.115686 11.115686 11.038432 11.038432 11.038432 11.038432 10.961177 10.961177 10.883923 10.883923 10.883923 10.806667 10.806667 10.806667 10.729412 10.729412 10.729412 10.729412 10.729412 10.729412 10.729412 10.729412 10.729412 10.574903 10.497647 10.343138 10.2658825 10.188628 10.111373 9.956863 9.879608 9.802354 9.725099 9.647843 9.570589 9.493334 9.4160795 9.338824 9.261569 9.184315 9.1070595 9.029804 9.029804 9.029804 9.029804 9.029804 9.029804 9.029804 9.029804 9.1070595 9.1070595 9.261569 9.493334 9.802354 10.188628 10.188628 10.188628 10.188628 10.188628 10.188628 10.111373 10.111373 10.111373 10.111373 10.188628 10.111373 10.111373 10.111373 10.034119 10.034119 10.034119 10.034119 9.956863 9.956863 9.956863 9.956863 9.879608 9.879608 9.879608 9.802354 9.802354 9.802354 9.802354 9.725099 9.725099 9.725099 9.647843 9.647843 9.647843 9.647843 9.570589 9.570589 9.570589 9.570589 9.570589 9.647843 9.647843 9.647843 9.647843 9.725099 9.725099 9.725099 9.725099 9.725099 9.802354 9.802354 9.802354 9.802354 9.879608 9.879608 10.111373 10.188628 10.343138 10.497647 10.574903 10.574903 10.652158 10.729412 10.806667 11.270197 11.270197 11.270197 11.270197 11.270197 11.270197 11.270197 11.270197 11.270197 11.270197 11.270197 11.270197 11.270197 11.270197 11.270197 11.270197 11.270197 11.270197 11.270197 11.270197 11.270197 11.270197 11.270197 11.270197 11.270197 11.270197 11.270197 11.270197 11.270197 11.270197 11.270197 11.270197 11.270197 11.270197 11.270197 11.270197 11.270197 11.270197 11.270197 11.270197 11.270197 11.270197 11.270197 11.270197 11.270197 11.270197 11.270197 11.270197 11.270197 11.270197 11.270197 11.270197 11.270197 11.270197 11.270197 11.192942 11.115686 11.038432 10.961177 10.883923 10.806667 10.806667 10.729412 10.729412 10.652158 10.652158 10.574903 10.574903 10.574903 10.497647 10.497647 10.497647 10.420393 10.420393 10.343138 10.343138 10.343138 10.343138 10.2658825 10.2658825 10.2658825 10.2658825 10.2658825 10.2658825 10.2658825 10.188628 10.188628 10.188628 10.188628 10.188628 10.188628 10.188628 10.188628 10.188628 10.188628 10.188628 10.188628 10.188628 10.2658825 10.2658825 10.2658825 10.2658825 10.343138 10.343138 10.343138 10.420393 10.420393 10.497647 10.497647 10.497647 10.497647 10.420393 10.420393 10.420393 10.420393 10.343138 10.343138 10.343138 10.2658825 10.2658825 10.2658825 10.2658825 10.188628 10.188628 10.188628 10.111373 10.111373 10.034119 10.034119 9.956863 9.956863 9.956863 9.879608 9.879608 9.802354 9.802354 9.725099 9.725099 8.95255 8.798039 8.720785 8.64353 8.566276 8.48902 8.411765
10.574903 10.652158 10.729412 10.806667 10.883923 10.883923 10.883923 10.883923 10.883923 10.883923 10.883923 10.883923 10.883923 10.883923 10.883923 10.883923 10.883923 10.883923 10.883923 10.883923 10.883923 10.883923 10.806667 10.806667 10.806667 10.806667 10.806667 10.806667 10.806667 10.806667 10.729412 10.729412 10.806667 10.806667 10.806667 10.883923 10.883923 10.883923 10.961177 10.961177 10.961177 10.961177 11.038432 11.038432 11.038432 11.115686 11.115686 11.115686 11.115686 11.115686 11.115686 11.115686 11.115686 11.115686 11.038432 11.038432 11.038432 10.961177 10.961177 10.961177 10.883923 10.883923 10.883923 10.806667 10.806667 10.806667 10.729412 10.729412 10.729412 10.652158 10.652158 10.652158 10.652158 10.652158 10.652158 10.574903 10.497647 10.343138 10.2658825 10.188628 10.111373 9.956863 9.879608 9.802354 9.725099 9.647843 9.570589 9.493334 9.4160795 9.338824 9.261569 9.184315 9.1070595 9.029804 9.029804 9.029804 9.029804 9.029804 9.029804 9.029804 9.029804 9.1070595 9.1070595 9.1070595 9.184315 9.4160795 9.647843 10.188628 10.188628 10.111373 10.111373 10.111373 10.111373 10.111373 10.111373 10.188628 10.188628 10.188628 10.188628 10.111373 10.111373 10.111373 10.034119 10.034119 10.034119 9.956863 9.956863 9.956863 9.956863 9.879608 9.879608 9.879608 9.879608 9.802354 9.802354 9.802354 9.725099 9.725099 9.725099 9.725099 9.647843 9.647843 9.647843 9.647843 9.570589 9.570589 9.570589 9.647843 9.647843 9.647843 9.647843 9.725099 9.725099 9.725099 9.725099 9.802354 9.802354 9.802354 9.802354 9.879608 9.879608 9.879608 9.879608 9.879608 10.034119 10.188628 10.2658825 10.420393 10.497647 10.574903 10.574903 10.806667 11.192942 11.192942 11.192942 11.192942 11.192942 11.192942 11.192942 11.192942 11.192942 11.192942 11.192942 11.192942 11.192942 11.192942 11.192942 11.192942 11.192942 11.192942 11.192942 11.192942 11.192942 11.192942 11.192942 11.192942 11.192942 11.192942 11.192942 11.192942 11.192942 11.192942 11.192942 11.192942 11.192942 11.192942 11.192942 11.192942 11.192942 11.192942 11.192942 11.192942 11.192942 11.192942 11.192942 11.192942 11.192942 11.192942 11.192942 11.192942 11.192942 11.192942 11.192942 11.192942 11.192942 11.192942 11.192942 11.115686 11.115686 11.038432 10.961177 10.883923 10.806667 10.806667 10.729412 10.729412 10.652158 10.652158 10.574903 10.574903 10.574903 10.497647 10.497647 10.497647 10.420393 10.420393 10.420393 10.343138 10.343138 10.343138 10.2658825 10.2658825 10.2658825 10.2658825 10.2658825 10.2658825 10.2658825 10.2658825 10.2658825 10.188628 10.188628 10.188628 10.188628 10.188628 10.188628 10.188628 10.188628 10.188628 10.188628 10.188628 10.2658825 10.2658825 10.2658825 10.2658825 10.2658825 10.343138 10.343138 10.343138 10.420393 10.420393 10.420393 10.420393 10.420393 10.420393 10.420393 10.343138 10.343138 10.343138 10.343138 10.343138 10.2658825 10.2658825 10.2658825 10.2658825 10.188628 10.188628 10.188628 10.111373 10.111373 10.034119 10.034119 9.956863 9.956863 9.956863 9.879608 9.879608 9.802354 9.802354 9.029804 8.875295 8.720785 8.720785 8.64353 8.566276 8.48902 8.411765 8.411765
10.497647 10.574903 10.652158 10.729412 10.806667 10.806667 10.806667 10.806667 10.806667 10.806667 10.806667 10.806667 10.806667 10.806667 10.883923 10.883923 10.883923 10.883923 10.883923 10.883923 10.883923 10.806667 10.806667 10.806667 10.806667 10.806667 10.806667 10.806667 10.806667 10.806667 10.729412 10.729412 10.729412 10.806667 10.806667 10.883923 10.883923 10.883923 10.961177 10.961177 10.961177 11.038432 11.038432 11.038432 11.038432 11.115686 11.115686 11.115686 11.115686 11.115686 11.115686 11.115686 11.115686 11.038432 11.038432 11.038432 10.961177 10.961177 10.961177 10.883923 10.883923 10.883923 10.806667 10.806667 10.806667 10.729412 10.729412 10.729412 10.652158 10.652158 10.652158 10.574903 10.574903 10.574903 10.574903 10.497647 10.343138 10.2658825 10.188628 10.111373 9.956863 9.879608 9.802354 9.725099 9.647843 9.570589 9.493334 9.4160795 9.338824 9.261569 9.184315 9.1070595 9.029804 9.029804 9.029804 9.029804 9.029804 9.029804 9.029804 9.029804 9.029804 9.1070595 9.1070595 9.1070595 9.184315 9.338824 9.570589 9.879608 10.188628 10.111373 10.111373 10.111373 10.111373 10.188628 10.188628 10.188628 10.188628 10.188628 10.188628 10.188628 10.111373 10.111373 10.111373 10.034119 10.034119 10.034119 9.956863 9.956863 9.956863 9.956863 9.879608 9.879608 9.879608 9.802354 9.802354 9.802354 9.802354 9.725099 9.725099 9.725099 9.725099 9.647843 9.647843 9.647843 9.570589 9.647843 9.647843 9.647843 9.647843 9.725099 9.725099 9.725099 9.725099 9.725099 9.802354 9.802354 9.802354 9.802354 9.879608 9.879608 9.879608 9.879608 9.879608 9.879608 9.879608 9.956863 10.111373 10.188628 10.343138 10.420393 10.497647 10.497647 10.574903 11.115686 11.115686 11.115686 11.115686 11.115686 11.115686 11.115686 11.115686 11.115686 11.115686 11.115686 11.115686 11.115686 11.115686 11.115686 11.115686 11.115686 11.115686 11.115686 11.115686 11.115686 11.115686 11.115686 11.115686 11.115686 11.115686 11.115686 11.115686 11.115686 11.115686 11.115686 11.115686 11.115686 11.115686 11.115686 11.115686 11.115686 11.115686 11.115686 11.115686 11.115686 11.115686 11.115686 11.115686 11.115686 11.115686 11.115686 11.115686 11.115686 11.115686 11.115686 11.115686 11.115686 11.038432 11.038432 11.038432 10.883923 10.883923 10.883923 10.806667 10.806667 10.729412 10.729412 10.652158 10.652158 10.652158 10.574903 10.574903 10.574903 10.497647 10.497647 10.420393 10.420393 10.420393 10.343138 10.343138 10.343138 10.2658825 10.2658825 10.2658825 10.2658825 10.2658825 10.2658825 10.2658825 10.2658825 10.2658825 10.2658825 10.2658825 10.188628 10.188628 10.188628 10.188628 10.188628 10.188628 10.188628 10.188628 10.188628 10.2658825 10.2658825 10.2658825 10.2658825 10.2658825 10.2658825 10.343138 10.343138 10.343138 10.343138 10.343138 10.343138 10.343138 10.343138 10.343138 10.343138 10.343138 10.343138 10.343138 10.2658825 10.2658825 10.2658825 10.2658825 10.2658825 10.188628 10.188628 10.188628 10.111373 10.111373 10.034119 10.034119 9.956863 9.956863 9.879608 9.879608 9.879608 9.1070595 9.029804 8.875295 8.798039 8.720785 8.64353 8.566276 8.48902 8.411765 8.411765 8.334511
10.2658825 10.420393 10.497647 10.574903 10.652158 10.729412 10.806667 10.806667 10.806667 10.806667 10.806667 10.806667 10.806667 10.806667 10.806667 10.806667 10.806667 10.806667 10.806667 10.806667 10.806667 10.806667 10.806667 10.806667 10.806667 10.806667 10.806667 10.806667 10.806667 10.806667 10.729412 10.729412 10.729412 10.729412 10.806667 10.883923 10.883923 10.883923 10.961177 10.961177 10.961177 11.038432 11.038432 11.038432 11.038432 11.038432 11.038432 11.038432 11.038432 11.038432 11.038432 11.038432 11.038432 11.038432 11.038432 10.961177 10.961177 10.961177 10.883923 10.883923 10.883923 10.806667 10.806667 10.729412 10.729412 10.729412 10.652158 10.652158 10.652158 10.652158 10.574903 10.574903 10.574903 10.497647 10.497647 10.343138 10.2658825 10.188628 10.111373 9.956863 9.879608 9.802354 9.725099 9.647843 9.570589 9.493334 9.4160795 9.338824 9.261569 9.184315 9.1070595 9.029804 9.029804 9.029804 9.029804 9.029804 9.029804 9.029804 9.029804 9.029804 9.029804 9.1070595 9.1070595 9.1070595 9.184315 9.261569 9.493334 9.725099 10.034119 10.111373 10.111373 10.111373 10.188628 10.188628 10.188628 10.188628 10.188628 10.188628 10.188628 10.188628 10.111373 10.111373 10.111373 10.111373 10.034119 10.034119 10.034119 9.956863 9.956863 9.956863 9.956863 9.879608 9.879608 9.879608 9.802354 9.802354 9.802354 9.802354 9.725099 9.725099 9.725099 9.647843 9.647843 9.647843 9.647843 9.647843 9.647843 9.647843 9.725099 9.725099 9.725099 9.725099 9.802354 9.802354 9.802354 9.802354 9.879608 9.879608 9.879608 9.879608 9.879608 9.879608 9.879608 9.879608 9.879608 9.879608 9.956863 10.034119 10.188628 10.2658825 10.343138 10.420393 10.420393 10.497647 11.038432 11.038432 11.038432 11.038432 11.038432 11.038432 11.038432 11.038432 11.038432 11.038432 11.038432 11.038432 11.038432 11.038432 11.038432 11.038432 11.038432 11.038432 11.038432 11.038432 11.038432 11.038432 11.038432 11.038432 11.038432 11.038432 11.038432 11.038432 11.038432 11.038432 11.038432 11.038432 11.038432 11.038432 11.038432 11.038432 11.038432 11.038432 11.038432 11.038432 11.038432 11.038432 11.038432 11.038432 11.038432 11.038432 11.038432 11.038432 11.038432 11.038432 11.038432 11.038432 11.038432 10.961177 10.961177 10.883923 10.883923 10.806667 10.806667 10.806667 10.729412 10.729412 10.652158 10.652158 10.652158 10.574903 10.574903 10.574903 10.497647 10.497647 10.420393 10.420393 10.420393 10.343138 10.343138 10.343138 10.2658825 10.2658825 10.2658825 10.2658825 10.2658825 10.2658825 10.2658825 10.2658825 10.2658825 10.188628 10.188628 10.188628 10.188628 10.188628 10.188628 10.188628 10.188628 10.188628 10.188628 10.188628 10.188628 10.2658825 10.2658825 10.2658825 10.2658825 10.2658825 10.2658825 10.2658825 10.2658825 10.2658825 10.2658825 10.2658825 10.2658825 10.2658825 10.2658825 10.2658825 10.2658825 10.343138 10.343138 10.2658825 10.2658825 10.2658825 10.2658825 10.2658825 10.188628 10.188628 10.111373 10.111373 10.111373 10.034119 10.034119 9.956863 9.956863 9.879608 9.184315 9.029804 8.95255 8.798039 8.798039 8.720785 8.64353 8.566276 8.48902 8.48902 8.411765 8.334511 8.257256
