12.42902 12.506275 12.506275 12.506275 12.583529 12.660785 12.73804 12.815294 12.8925495 12.8925495 12.969805 12.969805 12.969805 12.969805 12.969805 13.047059 13.047059 13.047059 13.047059 13.124314 13.124314 13.124314 13.201569 13.201569 13.278824 13.278824 13.278824 13.356079 13.356079 13.356079 13.433333 13.433333 13.510589 13.510589 13.510589 13.587844 13.587844 13.665098 13.665098 13.742353 13.742353 13.819609 13.819609 13.896863 13.896863 13.974118 13.974118 13.974118 13.974118 14.051373 14.051373 14.051373 14.051373 14.051373 14.128628 14.128628 14.205883 14.205883 14.283137 14.283137 14.360393 14.360393 14.437648 14.437648 14.514902 14.669412 14.746667 14.823922 14.823922 14.823922 14.901176 14.901176 14.901176 14.901176 14.901176 14.901176 14.901176 14.901176 14.978432 14.978432 14.978432 14.978432 14.978432 14.978432 15.055687 15.055687 15.132942 15.132942 15.210197 15.210197 15.287453 15.364707 15.364707 15.364707 15.364707 15.364707 15.364707 15.364707 15.364707 15.364707 15.364707 15.364707 15.364707 15.364707 15.364707 15.364707 15.364707 15.364707 15.364707 15.364707 15.364707 15.364707 15.364707 15.364707 15.364707 15.364707 15.364707 15.364707 15.364707 15.364707 15.364707 15.364707 15.364707 15.364707 15.364707 15.364707 15.364707 15.364707 14.901176 14.823922 14.823922 14.823922 14.823922 14.823922 14.823922 14.823922 14.823922 14.746667 14.746667 14.746667 14.746667 14.669412 14.592157 14.437648 14.283137 14.128628 13.974118 13.896863 13.896863 13.896863 13.819609 13.819609 13.819609 13.742353 13.742353 13.742353 13.665098 13.665098 13.665098 13.587844 13.587844 13.587844 13.510589 13.510589 13.510589 13.433333 13.433333 13.433333 13.433333 13.433333 13.356079 13.356079 13.356079 13.356079 13.278824 13.278824 13.278824 13.278824 13.278824 13.278824 13.201569 13.201569 13.201569 13.201569 13.201569 13.124314 13.124314 13.124314 13.124314 13.124314 13.124314 13.124314 13.201569 13.278824 13.356079 13.356079 13.278824 13.124314 13.047059 12.969805 12.8925495 12.815294 12.73804 12.660785 12.583529 12.506275 12.506275 12.42902 12.42902 12.42902 12.351766 12.351766 12.351766 12.27451 12.27451 12.27451 12.197255 12.197255 12.197255 12.197255 12.197255 12.27451 12.27451 12.27451 12.351766 12.351766 12.351766 12.42902 12.42902 12.506275 12.506275 12.583529 12.583529 12.660785 12.660785 12.73804 12.583529 12.42902 12.27451 12.120001 11.96549 11.810981 11.656471 11.579216 11.501962 11.501962 11.424706 11.424706 11.347451 11.347451 11.347451 11.270197 11.270197 11.270197 11.192942 11.192942 11.192942 11.192942 11.115686 11.115686 11.115686 11.115686 11.115686 11.115686 11.115686 11.192942 11.192942 11.192942 11.270197 11.270197 11.270197 11.347451 11.347451 11.424706 11.424706 11.424706 11.424706 11.424706 11.424706 11.424706 11.424706 11.424706 11.424706 11.424706 11.424706 11.424706 11.501962 11.501962 11.501962 11.501962 11.579216 11.656471 11.733726 11.733726 11.656471 11.656471 11.656471 11.579216 11.579216 11.579216 11.579216 11.579216 11.579216 11.579216 11.579216 11.501962 11.501962 11.501962 11.501962 11.501962 11.579216 11.656471 11.656471 11.733726 15.364707 15.364707 15.364707 15.364707 15.364707 15.364707 15.364707 15.364707 15.364707
12.351766 12.42902 12.42902 12.506275 12.506275 12.583529 12.660785 12.660785 12.73804 12.815294 12.8925495 12.8925495 12.8925495 12.8925495 12.8925495 12.8925495 12.969805 12.969805 12.969805 13.047059 13.047059 13.047059 13.124314 13.124314 13.201569 13.201569 13.201569 13.278824 13.278824 13.278824 13.356079 13.356079 13.433333 13.433333 13.433333 13.510589 13.510589 13.510589 13.587844 13.587844 13.665098 13.665098 13.742353 13.742353 13.742353 13.819609 13.819609 13.819609 13.819609 13.819609 13.896863 13.896863 13.896863 13.896863 13.974118 13.974118 13.974118 14.051373 14.051373 14.128628 14.128628 14.205883 14.283137 14.360393 14.437648 14.592157 14.669412 14.746667 14.746667 14.746667 14.746667 14.746667 14.746667 14.746667 14.746667 14.823922 14.823922 14.823922 14.823922 14.823922 14.823922 14.901176 14.901176 14.978432 14.978432 15.055687 15.055687 15.132942 15.132942 15.210197 15.210197 15.287453 15.287453 15.287453 15.287453 15.287453 15.287453 15.287453 15.287453 15.287453 15.287453 15.287453 15.287453 15.287453 15.287453 15.287453 15.287453 15.287453 15.287453 15.287453 15.287453 15.287453 15.287453 15.287453 15.287453 15.287453 15.287453 15.287453 15.287453 15.287453 15.287453 15.287453 15.287453 15.287453 15.287453 15.287453 15.287453 15.287453 14.978432 14.901176 14.901176 14.823922 14.823922 14.823922 14.823922 14.823922 14.823922 14.746667 14.746667 14.746667 14.746667 14.669412 14.514902 14.360393 14.205883 14.051373 13.974118 13.896863 13.896863 13.896863 13.819609 13.819609 13.819609 13.742353 13.742353 13.742353 13.665098 13.665098 13.665098 13.587844 13.587844 13.587844 13.510589 13.433333 13.433333 13.433333 13.356079 13.356079 13.356079 13.356079 13.356079 13.278824 13.278824 13.278824 13.278824 13.278824 13.201569 13.201569 13.201569 13.201569 13.201569 13.124314 13.124314 13.124314 13.124314 13.047059 13.124314 13.124314 13.124314 13.124314 13.124314 13.124314 13.201569 13.278824 13.278824 13.356079 13.278824 13.124314 13.047059 12.969805 12.8925495 12.815294 12.73804 12.660785 12.583529 12.506275 12.506275 12.42902 12.42902 12.42902 12.351766 12.351766 12.351766 12.27451 12.27451 12.27451 12.27451 12.197255 12.197255 12.120001 12.120001 12.120001 12.197255 12.27451 12.27451 12.27451 12.351766 12.351766 12.42902 12.42902 12.506275 12.506275 12.583529 12.583529 12.660785 12.660785 12.506275 12.351766 12.197255 12.042746 11.888236 11.733726 11.579216 11.579216 11.501962 11.424706 11.424706 11.347451 11.347451 11.347451 11.347451 11.270197 11.270197 11.270197 11.192942 11.192942 11.192942 11.192942 11.192942 11.115686 11.115686 11.115686 11.115686 11.192942 11.192942 11.192942 11.270197 11.270197 11.270197 11.347451 11.347451 11.424706 11.424706 11.424706 11.424706 11.424706 11.424706 11.424706 11.424706 11.424706 11.424706 11.424706 11.424706 11.424706 11.501962 11.501962 11.501962 11.501962 11.501962 11.579216 11.579216 11.579216 11.656471 11.733726 11.656471 11.656471 11.656471 11.579216 11.579216 11.579216 11.579216 11.579216 11.579216 11.579216 11.579216 11.579216 11.579216 11.579216 11.579216 11.579216 11.656471 11.656471 11.733726 11.810981 15.287453 15.287453 15.287453 15.287453 15.287453 15.287453 15.287453 15.287453 15.287453
12.351766 12.351766 12.42902 12.42902 12.506275 12.506275 12.506275 12.583529 12.660785 12.73804 12.815294 12.815294 12.815294 12.815294 12.815294 12.8925495 12.8925495 12.8925495 12.8925495 12.969805 12.969805 13.047059 13.047059 13.047059 13.124314 13.124314 13.124314 13.201569 13.201569 13.278824 13.278824 13.278824 13.356079 13.356079 13.356079 13.433333 13.433333 13.510589 13.510589 13.510589 13.587844 13.587844 13.587844 13.587844 13.587844 13.665098 13.665098 13.665098 13.665098 13.665098 13.665098 13.742353 13.742353 13.742353 13.742353 13.819609 13.819609 13.819609 13.896863 13.974118 13.974118 14.051373 14.205883 14.283137 14.360393 14.514902 14.592157 14.592157 14.592157 14.592157 14.592157 14.669412 14.669412 14.669412 14.669412 14.669412 14.669412 14.669412 14.669412 14.746667 14.746667 14.823922 14.823922 14.901176 14.978432 14.978432 14.978432 15.055687 15.132942 15.132942 15.132942 15.132942 15.132942 15.132942 15.132942 15.132942 15.132942 15.132942 15.132942 15.132942 15.132942 15.132942 15.132942 15.132942 15.132942 15.132942 15.132942 15.132942 15.132942 15.132942 15.132942 15.132942 15.132942 15.132942 15.132942 15.132942 15.132942 15.132942 15.132942 15.132942 15.132942 15.132942 15.132942 15.132942 15.132942 15.132942 15.132942 15.132942 15.132942 14.978432 14.901176 14.901176 14.901176 14.823922 14.823922 14.823922 14.823922 14.746667 14.746667 14.746667 14.746667 14.592157 14.437648 14.283137 14.128628 13.974118 13.974118 13.896863 13.896863 13.819609 13.819609 13.819609 13.819609 13.742353 13.742353 13.665098 13.665098 13.665098 13.587844 13.587844 13.510589 13.433333 13.356079 13.356079 13.356079 13.356079 13.356079 13.278824 13.278824 13.278824 13.278824 13.278824 13.201569 13.201569 13.201569 13.201569 13.201569 13.124314 13.124314 13.124314 13.124314 13.124314 13.047059 13.047059 13.047059 13.047059 13.047059 13.124314 13.124314 13.124314 13.124314 13.124314 13.201569 13.278824 13.278824 13.356079 13.278824 13.201569 13.047059 12.969805 12.8925495 12.815294 12.73804 12.660785 12.583529 12.506275 12.506275 12.42902 12.42902 12.42902 12.42902 12.351766 12.351766 12.351766 12.27451 12.27451 12.27451 12.197255 12.197255 12.197255 12.120001 12.120001 12.197255 12.197255 12.27451 12.27451 12.351766 12.351766 12.42902 12.42902 12.506275 12.506275 12.506275 12.583529 12.660785 12.583529 12.42902 12.27451 12.120001 11.96549 11.810981 11.656471 11.579216 11.501962 11.501962 11.424706 11.424706 11.347451 11.347451 11.347451 11.347451 11.270197 11.270197 11.270197 11.270197 11.192942 11.192942 11.192942 11.192942 11.192942 11.192942 11.192942 11.192942 11.192942 11.270197 11.270197 11.270197 11.347451 11.347451 11.424706 11.424706 11.424706 11.424706 11.424706 11.424706 11.424706 11.424706 11.501962 11.424706 11.424706 11.424706 11.424706 11.501962 11.501962 11.501962 11.501962 11.501962 11.579216 11.579216 11.579216 11.579216 11.579216 11.579216 11.656471 11.656471 11.656471 11.656471 11.656471 11.579216 11.579216 11.579216 11.579216 11.579216 11.579216 11.579216 11.579216 11.579216 11.579216 11.579216 11.656471 11.656471 11.733726 11.810981 11.888236 15.132942 15.132942 15.132942 15.132942 15.132942 15.132942 15.132942 15.132942 15.132942
12.27451 12.27451 12.351766 12.351766 12.42902 12.42902 12.506275 12.506275 12.583529 12.660785 12.73804 12.73804 12.73804 12.73804 12.73804 12.815294 12.815294 12.815294 12.8925495 12.8925495 12.8925495 12.969805 12.969805 12.969805 13.047059 13.047059 13.047059 13.124314 13.124314 13.201569 13.201569 13.201569 13.278824 13.278824 13.356079 13.356079 13.433333 13.433333 13.433333 13.510589 13.510589 13.510589 13.510589 13.510589 13.510589 13.510589 13.510589 13.510589 13.510589 13.510589 13.587844 13.587844 13.587844 13.587844 13.587844 13.665098 13.665098 13.665098 13.742353 13.819609 13.896863 14.051373 14.128628 14.205883 14.360393 14.437648 14.437648 14.514902 14.514902 14.514902 14.514902 14.514902 14.514902 14.514902 14.514902 14.592157 14.592157 14.592157 14.669412 14.669412 14.746667 14.746667 14.823922 14.823922 14.901176 14.901176 14.978432 14.978432 15.055687 15.055687 15.055687 15.055687 15.055687 15.055687 15.055687 15.055687 15.055687 15.055687 15.055687 15.055687 15.055687 15.055687 15.055687 15.055687 15.055687 15.055687 15.055687 15.055687 15.055687 15.055687 15.055687 15.055687 15.055687 15.055687 15.055687 15.055687 15.055687 15.055687 15.055687 15.055687 15.055687 15.055687 15.055687 15.055687 15.055687 15.055687 15.055687 15.055687 15.055687 15.055687 14.978432 14.978432 14.901176 14.901176 14.901176 14.823922 14.823922 14.746667 14.746667 14.746667 14.746667 14.514902 14.360393 14.205883 14.051373 13.974118 13.974118 13.896863 13.896863 13.819609 13.819609 13.819609 13.742353 13.742353 13.742353 13.665098 13.587844 13.587844 13.510589 13.433333 13.356079 13.356079 13.356079 13.278824 13.278824 13.278824 13.278824 13.278824 13.278824 13.201569 13.201569 13.201569 13.201569 13.124314 13.124314 13.124314 13.124314 13.124314 13.047059 13.047059 13.047059 13.047059 13.047059 13.047059 13.047059 13.047059 13.047059 13.047059 13.124314 13.124314 13.124314 13.124314 13.201569 13.278824 13.278824 13.356079 13.278824 13.201569 13.047059 12.8925495 12.8925495 12.815294 12.73804 12.660785 12.583529 12.506275 12.506275 12.506275 12.42902 12.42902 12.42902 12.351766 12.351766 12.351766 12.27451 12.27451 12.27451 12.197255 12.197255 12.197255 12.197255 12.197255 12.197255 12.197255 12.27451 12.27451 12.351766 12.351766 12.351766 12.42902 12.42902 12.506275 12.506275 12.583529 12.583529 12.506275 12.351766 12.120001 12.042746 11.888236 11.733726 11.579216 11.501962 11.501962 11.424706 11.424706 11.424706 11.347451 11.347451 11.347451 11.347451 11.347451 11.270197 11.270197 11.270197 11.270197 11.270197 11.270197 11.270197 11.270197 11.192942 11.192942 11.270197 11.270197 11.270197 11.347451 11.347451 11.424706 11.424706 11.424706 11.424706 11.501962 11.501962 11.501962 11.501962 11.501962 11.501962 11.501962 11.501962 11.424706 11.501962 11.501962 11.501962 11.501962 11.501962 11.579216 11.579216 11.579216 11.579216 11.579216 11.579216 11.656471 11.656471 11.656471 11.656471 11.656471 11.656471 11.656471 11.656471 11.656471 11.656471 11.656471 11.656471 11.656471 11.656471 11.579216 11.579216 11.579216 11.656471 11.656471 11.733726 11.810981 11.888236 11.888236 12.8925495 15.055687 15.055687 15.055687 15.055687 15.055687 15.055687 15.055687 15.055687
12.197255 12.27451 12.27451 12.351766 12.351766 12.42902 12.42902 12.42902 12.506275 12.583529 12.660785 12.660785 12.660785 12.660785 12.660785 12.73804 12.73804 12.73804 12.815294 12.815294 12.8925495 12.8925495 12.8925495 12.8925495 12.969805 12.969805 13.047059 13.047059 13.124314 13.124314 13.201569 13.201569 13.278824 13.278824 13.278824 13.356079 13.356079 13.356079 13.433333 13.433333 13.433333 13.433333 13.433333 13.433333 13.433333 13.433333 13.433333 13.433333 13.510589 13.510589 13.510589 13.510589 13.510589 13.510589 13.510589 13.510589 13.510589 13.587844 13.665098 13.742353 13.896863 13.974118 14.051373 14.128628 14.283137 14.360393 14.360393 14.360393 14.360393 14.360393 14.437648 14.437648 14.437648 14.437648 14.437648 14.514902 14.514902 14.592157 14.592157 14.669412 14.669412 14.746667 14.746667 14.823922 14.823922 14.901176 14.901176 14.978432 14.978432 14.978432 14.978432 14.978432 14.978432 14.978432 14.978432 14.978432 14.978432 14.978432 14.978432 14.978432 14.978432 14.978432 14.978432 14.978432 14.978432 14.978432 14.978432 14.978432 14.978432 14.978432 14.978432 14.978432 14.978432 14.978432 14.978432 14.978432 14.978432 14.978432 14.978432 14.978432 14.978432 14.978432 14.978432 14.978432 14.978432 14.978432 14.978432 14.978432 14.978432 14.978432 14.978432 14.978432 14.978432 14.978432 14.901176 14.901176 14.823922 14.823922 14.823922 14.746667 14.669412 14.514902 14.283137 14.205883 13.974118 13.974118 13.896863 13.896863 13.896863 13.819609 13.819609 13.819609 13.742353 13.665098 13.587844 13.587844 13.510589 13.433333 13.356079 13.278824 13.278824 13.278824 13.278824 13.278824 13.278824 13.201569 13.201569 13.201569 13.201569 13.201569 13.124314 13.124314 13.124314 13.124314 13.124314 13.047059 13.047059 12.969805 12.969805 13.047059 13.047059 13.047059 13.047059 13.047059 13.047059 13.047059 13.047059 13.047059 13.124314 13.124314 13.124314 13.124314 13.201569 13.278824 13.278824 13.356079 13.278824 13.201569 13.047059 12.8925495 12.815294 12.73804 12.660785 12.583529 12.583529 12.506275 12.506275 12.506275 12.42902 12.42902 12.42902 12.351766 12.351766 12.351766 12.27451 12.27451 12.27451 12.27451 12.27451 12.197255 12.197255 12.197255 12.197255 12.27451 12.27451 12.27451 12.351766 12.351766 12.351766 12.42902 12.42902 12.42902 12.506275 12.506275 12.583529 12.42902 12.27451 12.042746 11.888236 11.733726 11.656471 11.579216 11.501962 11.424706 11.424706 11.424706 11.424706 11.424706 11.347451 11.347451 11.347451 11.347451 11.347451 11.347451 11.347451 11.347451 11.270197 11.270197 11.270197 11.270197 11.270197 11.270197 11.270197 11.347451 11.347451 11.424706 11.424706 11.424706 11.424706 11.501962 11.501962 11.501962 11.501962 11.501962 11.501962 11.501962 11.501962 11.501962 11.501962 11.501962 11.501962 11.501962 11.501962 11.579216 11.579216 11.579216 11.579216 11.579216 11.579216 11.656471 11.656471 11.656471 11.656471 11.656471 11.656471 11.656471 11.656471 11.656471 11.656471 11.656471 11.656471 11.656471 11.656471 11.656471 11.656471 11.656471 11.656471 11.656471 11.656471 11.733726 11.810981 11.888236 11.888236 11.96549 12.8925495 12.8925495 14.978432 14.978432 14.978432 14.978432 14.978432 14.978432 14.978432
12.197255 12.197255 12.27451 12.27451 12.27451 12.351766 12.351766 12.42902 12.42902 12.506275 12.506275 12.506275 12.583529 12.583529 12.660785 12.660785 12.660785 12.73804 12.73804 12.815294 12.815294 12.815294 12.8925495 12.8925495 12.969805 12.969805 12.969805 13.047059 13.047059 13.124314 13.124314 13.201569 13.201569 13.278824 13.278824 13.278824 13.278824 13.278824 13.356079 13.356079 13.356079 13.356079 13.356079 13.356079 13.356079 13.356079 13.356079 13.356079 13.356079 13.433333 13.433333 13.433333 13.433333 13.433333 13.433333 13.510589 13.510589 13.587844 13.587844 13.742353 13.819609 13.896863 13.974118 14.051373 14.205883 14.283137 14.283137 14.283137 14.283137 14.283137 14.283137 14.283137 14.360393 14.360393 14.360393 14.437648 14.437648 14.514902 14.514902 14.592157 14.592157 14.669412 14.746667 14.746667 14.823922 14.823922 14.823922 14.823922 14.823922 14.823922 14.823922 14.823922 14.823922 14.823922 14.823922 14.823922 14.823922 14.823922 14.823922 14.823922 14.823922 14.823922 14.823922 14.823922 14.823922 14.823922 14.823922 14.823922 14.823922 14.823922 14.823922 14.823922 14.823922 14.823922 14.823922 14.823922 14.823922 14.823922 14.823922 14.823922 14.823922 14.823922 14.823922 14.823922 14.823922 14.823922 14.823922 14.823922 14.823922 14.823922 14.823922 14.823922 14.823922 14.823922 14.823922 14.823922 14.823922 14.823922 14.823922 14.823922 14.592157 14.437648 14.283137 14.128628 13.974118 13.974118 13.896863 13.896863 13.896863 13.819609 13.742353 13.665098 13.587844 13.587844 13.510589 13.433333 13.356079 13.278824 13.278824 13.278824 13.278824 13.201569 13.201569 13.201569 13.201569 13.201569 13.124314 13.124314 13.124314 13.124314 13.124314 13.047059 13.047059 12.969805 12.969805 12.969805 12.969805 12.969805 12.969805 12.969805 13.047059 13.047059 13.047059 13.047059 13.047059 13.047059 13.047059 13.047059 13.047059 13.124314 13.124314 13.124314 13.201569 13.201569 13.278824 13.356079 13.278824 13.201569 13.047059 12.8925495 12.815294 12.73804 12.660785 12.583529 12.583529 12.506275 12.506275 12.506275 12.42902 12.42902 12.42902 12.42902 12.351766 12.351766 12.351766 12.27451 12.27451 12.27451 12.27451 12.27451 12.197255 12.197255 12.197255 12.27451 12.27451 12.27451 12.351766 12.351766 12.351766 12.42902 12.42902 12.506275 12.506275 12.506275 12.583529 12.351766 12.197255 12.042746 11.810981 11.656471 11.579216 11.501962 11.501962 11.501962 11.424706 11.424706 11.424706 11.424706 11.424706 11.424706 11.424706 11.424706 11.424706 11.347451 11.347451 11.347451 11.347451 11.347451 11.347451 11.347451 11.347451 11.347451 11.347451 11.424706 11.424706 11.424706 11.424706 11.501962 11.501962 11.579216 11.579216 11.579216 11.579216 11.579216 11.579216 11.579216 11.579216 11.579216 11.501962 11.501962 11.501962 11.501962 11.501962 11.579216 11.579216 11.579216 11.579216 11.656471 11.656471 11.656471 11.656471 11.656471 11.656471 11.656471 11.656471 11.733726 11.733726 11.733726 11.733726 11.656471 11.656471 11.656471 11.656471 11.656471 11.656471 11.656471 11.656471 11.656471 11.733726 11.810981 11.888236 11.888236 11.96549 12.042746 12.815294 12.815294 12.8925495 14.823922 14.823922 14.823922 14.823922 14.823922 14.823922
12.120001 12.197255 12.197255 12.27451 12.27451 12.27451 12.351766 12.351766 12.42902 12.42902 12.42902 12.506275 12.506275 12.583529 12.583529 12.660785 12.660785 12.660785 12.73804 12.73804 12.815294 12.815294 12.815294 12.8925495 12.8925495 12.969805 12.969805 12.969805 13.047059 13.047059 13.124314 13.124314 13.124314 13.201569 13.201569 13.201569 13.278824 13.278824 13.278824 13.278824 13.278824 13.278824 13.278824 13.278824 13.278824 13.278824 13.278824 13.278824 13.278824 13.278824 13.356079 13.356079 13.356079 13.433333 13.433333 13.433333 13.510589 13.587844 13.587844 13.665098 13.742353 13.819609 13.896863 14.051373 14.128628 14.128628 14.128628 14.128628 14.128628 14.205883 14.205883 14.205883 14.283137 14.283137 14.360393 14.360393 14.437648 14.514902 14.514902 14.592157 14.592157 14.669412 14.746667 14.746667 14.746667 14.746667 14.746667 14.746667 14.746667 14.746667 14.746667 14.746667 14.746667 14.746667 14.746667 14.746667 14.746667 14.746667 14.746667 14.746667 14.746667 14.746667 14.746667 14.746667 14.746667 14.746667 14.746667 14.746667 14.746667 14.746667 14.746667 14.746667 14.746667 14.746667 14.746667 14.746667 14.746667 14.746667 14.746667 14.746667 14.746667 14.746667 14.746667 14.746667 14.746667 14.746667 14.746667 14.746667 14.746667 14.746667 14.746667 14.746667 14.746667 14.746667 14.746667 14.746667 14.746667 14.746667 14.746667 14.746667 14.592157 14.360393 14.205883 14.051373 13.974118 13.974118 13.896863 13.819609 13.742353 13.665098 13.587844 13.510589 13.510589 13.433333 13.356079 13.278824 13.278824 13.201569 13.201569 13.201569 13.201569 13.201569 13.124314 13.124314 13.124314 13.124314 13.124314 13.047059 13.047059 13.047059 12.969805 12.969805 12.969805 12.969805 12.969805 12.969805 12.969805 12.969805 12.969805 12.969805 13.047059 13.047059 13.047059 13.047059 13.047059 13.047059 13.047059 13.047059 13.047059 13.124314 13.124314 13.124314 13.201569 13.201569 13.278824 13.356079 13.356079 13.201569 13.047059 12.8925495 12.815294 12.73804 12.660785 12.583529 12.583529 12.583529 12.506275 12.506275 12.506275 12.42902 12.42902 12.42902 12.351766 12.351766 12.351766 12.351766 12.351766 12.27451 12.27451 12.27451 12.27451 12.197255 12.197255 12.27451 12.27451 12.27451 12.351766 12.351766 12.42902 12.42902 12.42902 12.506275 12.506275 12.506275 12.506275 12.351766 12.120001 11.96549 11.733726 11.579216 11.501962 11.501962 11.501962 11.501962 11.501962 11.501962 11.501962 11.424706 11.424706 11.424706 11.424706 11.424706 11.424706 11.424706 11.424706 11.424706 11.424706 11.347451 11.347451 11.347451 11.347451 11.424706 11.424706 11.424706 11.424706 11.501962 11.501962 11.579216 11.579216 11.579216 11.579216 11.579216 11.579216 11.579216 11.579216 11.579216 11.579216 11.579216 11.579216 11.579216 11.579216 11.579216 11.501962 11.501962 11.501962 11.501962 11.501962 11.579216 11.579216 11.656471 11.656471 11.656471 11.733726 11.733726 11.733726 11.733726 11.733726 11.733726 11.733726 11.733726 11.733726 11.733726 11.733726 11.733726 11.733726 11.656471 11.733726 11.733726 11.810981 11.888236 11.888236 11.96549 12.042746 12.120001 12.73804 12.815294 12.815294 12.815294 14.746667 14.746667 14.746667 14.746667 14.746667
12.120001 12.120001 12.197255 12.197255 12.27451 12.27451 12.27451 12.351766 12.351766 12.42902 12.42902 12.42902 12.506275 12.506275 12.583529 12.583529 12.660785 12.660785 12.660785 12.73804 12.73804 12.815294 12.815294 12.8925495 12.8925495 12.8925495 12.969805 12.969805 13.047059 13.047059 13.047059 13.047059 13.124314 13.124314 13.124314 13.124314 13.201569 13.201569 13.201569 13.201569 13.201569 13.201569 13.201569 13.201569 13.201569 13.201569 13.201569 13.201569 13.278824 13.278824 13.278824 13.356079 13.356079 13.356079 13.433333 13.433333 13.510589 13.510589 13.587844 13.665098 13.665098 13.742353 13.896863 13.974118 14.051373 14.051373 14.051373 14.051373 14.051373 14.128628 14.128628 14.205883 14.205883 14.283137 14.360393 14.360393 14.437648 14.437648 14.514902 14.592157 14.592157 14.592157 14.592157 14.592157 14.592157 14.592157 14.592157 14.592157 14.592157 14.592157 14.592157 14.592157 14.592157 14.592157 14.592157 14.592157 14.592157 14.592157 14.592157 14.592157 14.592157 14.592157 14.592157 14.592157 14.592157 14.592157 14.592157 14.592157 14.592157 14.592157 14.592157 14.592157 14.592157 14.592157 14.592157 14.592157 14.592157 14.592157 14.592157 14.592157 14.592157 14.592157 14.592157 14.592157 14.592157 14.592157 14.592157 14.592157 14.592157 14.592157 14.592157 14.592157 14.592157 14.592157 14.592157 14.592157 14.592157 14.592157 14.592157 14.592157 14.592157 14.360393 14.205883 13.974118 13.896863 13.819609 13.742353 13.665098 13.587844 13.510589 13.510589 13.433333 13.356079 13.278824 13.201569 13.201569 13.201569 13.201569 13.124314 13.124314 13.124314 13.124314 13.124314 13.047059 13.047059 13.047059 13.047059 12.969805 12.8925495 12.8925495 12.8925495 12.8925495 12.969805 12.969805 12.969805 12.969805 12.969805 12.969805 12.969805 12.969805 12.969805 13.047059 13.047059 13.047059 13.047059 13.047059 13.047059 13.047059 13.047059 13.047059 13.124314 13.124314 13.124314 13.201569 13.278824 13.356079 13.356079 13.201569 13.047059 12.8925495 12.815294 12.73804 12.660785 12.660785 12.583529 12.583529 12.506275 12.506275 12.506275 12.42902 12.42902 12.42902 12.42902 12.351766 12.351766 12.351766 12.351766 12.351766 12.27451 12.27451 12.27451 12.27451 12.27451 12.27451 12.27451 12.351766 12.351766 12.351766 12.42902 12.42902 12.42902 12.506275 12.506275 12.583529 12.42902 12.27451 12.042746 11.888236 11.733726 11.579216 11.579216 11.579216 11.579216 11.579216 11.501962 11.501962 11.501962 11.501962 11.501962 11.501962 11.501962 11.501962 11.424706 11.424706 11.424706 11.424706 11.424706 11.424706 11.424706 11.424706 11.424706 11.424706 11.424706 11.501962 11.501962 11.579216 11.579216 11.579216 11.579216 11.579216 11.579216 11.579216 11.579216 11.579216 11.656471 11.656471 11.656471 11.579216 11.579216 11.579216 11.579216 11.579216 11.501962 11.501962 11.424706 11.424706 11.424706 11.424706 11.501962 11.501962 11.501962 11.579216 11.579216 11.656471 11.656471 11.733726 11.733726 11.733726 11.733726 11.733726 11.733726 11.733726 11.733726 11.733726 11.733726 11.733726 11.733726 11.810981 11.888236 11.888236 11.96549 12.042746 12.120001 12.197255 12.73804 12.73804 12.73804 12.815294 12.815294 14.592157 14.592157 14.592157 14.592157
12.120001 12.120001 12.120001 12.197255 12.197255 12.27451 12.27451 12.351766 12.351766 12.351766 12.42902 12.42902 12.506275 12.506275 12.506275 12.583529 12.583529 12.660785 12.660785 12.73804 12.73804 12.73804 12.815294 12.815294 12.8925495 12.8925495 12.8925495 12.8925495 12.969805 12.969805 12.969805 13.047059 13.047059 13.047059 13.047059 13.124314 13.124314 13.124314 13.124314 13.124314 13.124314 13.124314 13.124314 13.124314 13.124314 13.124314 13.201569 13.201569 13.201569 13.278824 13.278824 13.278824 13.356079 13.356079 13.433333 13.433333 13.510589 13.510589 13.587844 13.665098 13.665098 13.742353 13.819609 13.896863 13.896863 13.896863 13.974118 13.974118 14.051373 14.128628 14.128628 14.205883 14.205883 14.283137 14.360393 14.360393 14.437648 14.437648 14.514902 14.514902 14.514902 14.514902 14.514902 14.514902 14.514902 14.514902 14.514902 14.514902 14.514902 14.514902 14.514902 14.514902 14.514902 14.514902 14.514902 14.514902 14.514902 14.514902 14.514902 14.514902 14.514902 14.514902 14.514902 14.514902 14.514902 14.514902 14.514902 14.514902 14.514902 14.514902 14.514902 14.514902 14.514902 14.514902 14.514902 14.514902 14.514902 14.514902 14.514902 14.514902 14.514902 14.514902 14.514902 14.514902 14.514902 14.514902 14.514902 14.514902 14.514902 14.514902 14.514902 14.514902 14.514902 14.514902 14.514902 14.514902 14.514902 14.514902 14.514902 14.514902 14.514902 14.360393 14.205883 13.819609 13.742353 13.665098 13.587844 13.510589 13.510589 13.433333 13.356079 13.278824 13.201569 13.201569 13.124314 13.124314 13.124314 13.124314 13.124314 13.047059 13.047059 13.047059 13.047059 13.047059 12.969805 12.8925495 12.8925495 12.8925495 12.8925495 12.8925495 12.8925495 12.8925495 12.969805 12.969805 12.969805 12.969805 12.969805 12.969805 12.969805 12.969805 12.969805 13.047059 13.047059 13.047059 13.047059 13.047059 13.047059 13.047059 13.047059 13.047059 13.124314 13.124314 13.124314 13.201569 13.278824 13.356079 13.356079 13.201569 13.047059 12.8925495 12.815294 12.73804 12.660785 12.660785 12.583529 12.583529 12.506275 12.506275 12.506275 12.506275 12.42902 12.42902 12.42902 12.42902 12.351766 12.351766 12.351766 12.351766 12.351766 12.27451 12.27451 12.27451 12.27451 12.27451 12.27451 12.351766 12.351766 12.351766 12.42902 12.42902 12.506275 12.506275 12.506275 12.583529 12.351766 12.197255 11.96549 11.810981 11.733726 11.656471 11.579216 11.579216 11.579216 11.579216 11.579216 11.579216 11.579216 11.579216 11.501962 11.501962 11.501962 11.501962 11.501962 11.501962 11.501962 11.501962 11.424706 11.424706 11.424706 11.424706 11.424706 11.501962 11.501962 11.579216 11.579216 11.579216 11.656471 11.656471 11.656471 11.656471 11.656471 11.656471 11.656471 11.656471 11.656471 11.656471 11.656471 11.656471 11.656471 11.579216 11.579216 11.579216 11.501962 11.501962 11.501962 11.424706 11.424706 11.424706 11.424706 11.424706 11.424706 11.424706 11.501962 11.501962 11.579216 11.579216 11.656471 11.656471 11.810981 11.733726 11.733726 11.733726 11.733726 11.733726 11.733726 11.733726 11.810981 11.888236 11.888236 11.96549 12.042746 12.120001 12.197255 12.27451 12.660785 12.73804 12.73804 12.73804 12.73804 14.514902 14.514902 14.514902 14.514902
12.042746 12.120001 12.120001 12.120001 12.197255 12.197255 12.27451 12.27451 12.351766 12.351766 12.351766 12.42902 12.42902 12.506275 12.506275 12.506275 12.583529 12.583529 12.660785 12.660785 12.73804 12.73804 12.73804 12.815294 12.815294 12.815294 12.8925495 12.8925495 12.8925495 12.8925495 12.8925495 12.969805 12.969805 12.969805 12.969805 13.047059 13.047059 13.047059 13.047059 13.047059 13.047059 13.047059 13.047059 13.047059 13.124314 13.124314 13.124314 13.201569 13.201569 13.278824 13.278824 13.278824 13.356079 13.356079 13.356079 13.433333 13.510589 13.510589 13.587844 13.665098 13.665098 13.742353 13.742353 13.819609 13.896863 13.896863 13.974118 13.974118 14.051373 14.128628 14.128628 14.205883 14.205883 14.283137 14.360393 14.360393 14.437648 14.437648 14.437648 14.437648 14.437648 14.437648 14.437648 14.437648 14.437648 14.437648 14.437648 14.437648 14.437648 14.437648 14.437648 14.437648 14.437648 14.437648 14.437648 14.437648 14.437648 14.437648 14.437648 14.437648 14.437648 14.437648 14.437648 14.437648 14.437648 14.437648 14.437648 14.437648 14.437648 14.437648 14.437648 14.437648 14.437648 14.437648 14.437648 14.437648 14.437648 14.437648 14.437648 14.437648 14.437648 14.437648 14.437648 14.437648 14.437648 14.437648 14.437648 14.437648 14.437648 14.437648 14.437648 14.437648 14.437648 14.437648 14.437648 14.437648 14.437648 14.437648 14.437648 14.437648 14.437648 14.360393 14.051373 13.665098 13.587844 13.510589 13.510589 13.433333 13.356079 13.278824 13.201569 13.124314 13.124314 13.124314 13.124314 13.047059 13.047059 13.047059 13.047059 13.047059 12.969805 12.969805 12.8925495 12.8925495 12.8925495 12.8925495 12.8925495 12.8925495 12.8925495 12.8925495 12.8925495 12.8925495 12.8925495 12.969805 12.969805 12.969805 12.969805 12.969805 12.969805 12.969805 12.969805 12.969805 13.047059 13.047059 13.047059 13.047059 13.047059 13.047059 13.047059 13.047059 13.047059 13.124314 13.124314 13.201569 13.278824 13.278824 13.356079 13.201569 13.047059 12.8925495 12.815294 12.73804 12.660785 12.660785 12.583529 12.583529 12.583529 12.506275 12.506275 12.506275 12.506275 12.42902 12.42902 12.42902 12.42902 12.42902 12.351766 12.351766 12.351766 12.351766 12.27451 12.27451 12.27451 12.27451 12.27451 12.351766 12.351766 12.42902 12.42902 12.42902 12.506275 12.506275 12.506275 12.506275 12.27451 12.120001 11.888236 11.810981 11.733726 11.656471 11.656471 11.656471 11.656471 11.656471 11.579216 11.579216 11.579216 11.579216 11.579216 11.579216 11.579216 11.579216 11.579216 11.501962 11.501962 11.501962 11.501962 11.501962 11.501962 11.501962 11.501962 11.579216 11.579216 11.579216 11.656471 11.656471 11.656471 11.656471 11.656471 11.656471 11.656471 11.656471 11.656471 11.656471 11.656471 11.656471 11.656471 11.656471 11.656471 11.656471 11.579216 11.579216 11.501962 11.501962 11.501962 11.424706 11.424706 11.424706 11.424706 11.424706 11.424706 11.424706 11.424706 11.424706 11.424706 11.424706 11.501962 11.501962 11.579216 11.579216 11.810981 11.810981 11.810981 11.810981 11.810981 11.810981 11.888236 11.96549 11.96549 12.042746 12.120001 12.197255 12.27451 12.27451 12.660785 12.660785 12.660785 12.73804 12.73804 12.73804 14.437648 14.437648 14.437648
12.042746 12.042746 12.120001 12.120001 12.197255 12.197255 12.27451 12.27451 12.27451 12.351766 12.351766 12.42902 12.42902 12.42902 12.506275 12.506275 12.506275 12.583529 12.583529 12.660785 12.660785 12.73804 12.73804 12.73804 12.73804 12.815294 12.815294 12.815294 12.815294 12.8925495 12.8925495 12.8925495 12.8925495 12.8925495 12.969805 12.969805 12.969805 12.969805 12.969805 12.969805 12.969805 12.969805 13.047059 13.047059 13.047059 13.124314 13.124314 13.201569 13.201569 13.201569 13.278824 13.278824 13.278824 13.356079 13.356079 13.433333 13.510589 13.510589 13.587844 13.587844 13.665098 13.742353 13.742353 13.819609 13.896863 13.896863 13.974118 13.974118 14.051373 14.051373 14.128628 14.205883 14.205883 14.283137 14.360393 14.360393 14.360393 14.360393 14.360393 14.360393 14.360393 14.360393 14.360393 14.360393 14.360393 14.360393 14.360393 14.360393 14.360393 14.360393 14.360393 14.360393 14.360393 14.360393 14.360393 14.360393 14.360393 14.360393 14.360393 14.360393 14.360393 14.360393 14.360393 14.360393 14.360393 14.360393 14.360393 14.360393 14.360393 14.360393 14.360393 14.360393 14.360393 14.360393 14.360393 14.360393 14.360393 14.360393 14.360393 14.360393 14.360393 14.360393 14.360393 14.360393 14.360393 14.360393 14.360393 14.360393 14.360393 14.360393 14.360393 14.360393 14.360393 14.360393 14.360393 14.360393 14.360393 14.360393 14.360393 14.360393 14.360393 14.283137 13.896863 13.587844 13.510589 13.433333 13.356079 13.278824 13.201569 13.124314 13.124314 13.047059 13.047059 13.047059 13.047059 13.047059 12.969805 12.969805 12.8925495 12.8925495 12.815294 12.815294 12.8925495 12.8925495 12.8925495 12.8925495 12.8925495 12.8925495 12.8925495 12.8925495 12.8925495 12.8925495 12.8925495 12.969805 12.969805 12.969805 12.969805 12.969805 12.969805 12.969805 12.969805 12.969805 13.047059 13.047059 13.047059 13.047059 13.047059 13.047059 13.047059 13.047059 13.047059 13.124314 13.124314 13.201569 13.278824 13.278824 13.356079 13.201569 13.047059 12.8925495 12.815294 12.73804 12.660785 12.660785 12.660785 12.583529 12.583529 12.583529 12.506275 12.506275 12.506275 12.506275 12.42902 12.42902 12.42902 12.42902 12.42902 12.351766 12.351766 12.351766 12.351766 12.27451 12.27451 12.27451 12.351766 12.351766 12.351766 12.42902 12.42902 12.42902 12.506275 12.506275 12.583529 12.42902 12.197255 12.042746 11.888236 11.888236 11.810981 11.733726 11.733726 11.733726 11.656471 11.656471 11.656471 11.656471 11.656471 11.656471 11.656471 11.579216 11.579216 11.579216 11.579216 11.579216 11.579216 11.579216 11.579216 11.501962 11.501962 11.579216 11.579216 11.579216 11.656471 11.656471 11.656471 11.656471 11.656471 11.733726 11.733726 11.733726 11.733726 11.733726 11.733726 11.733726 11.733726 11.733726 11.733726 11.656471 11.656471 11.656471 11.579216 11.579216 11.579216 11.501962 11.501962 11.424706 11.424706 11.424706 11.347451 11.347451 11.347451 11.347451 11.347451 11.347451 11.347451 11.347451 11.347451 11.424706 11.424706 11.501962 11.501962 11.579216 11.810981 11.810981 11.810981 11.888236 11.96549 11.96549 12.042746 12.120001 12.197255 12.27451 12.27451 12.351766 12.583529 12.583529 12.660785 12.660785 12.660785 12.73804 12.73804 14.360393 14.360393
12.042746 12.042746 12.042746 12.120001 12.120001 12.197255 12.197255 12.27451 12.27451 12.27451 12.351766 12.351766 12.42902 12.42902 12.42902 12.506275 12.506275 12.583529 12.583529 12.583529 12.660785 12.660785 12.660785 12.660785 12.73804 12.73804 12.73804 12.73804 12.815294 12.815294 12.815294 12.815294 12.8925495 12.8925495 12.8925495 12.8925495 12.8925495 12.8925495 12.8925495 12.8925495 12.969805 12.969805 12.969805 13.047059 13.047059 13.124314 13.124314 13.124314 13.201569 13.201569 13.278824 13.278824 13.278824 13.356079 13.356079 13.433333 13.510589 13.510589 13.587844 13.587844 13.665098 13.742353 13.742353 13.819609 13.819609 13.896863 13.974118 13.974118 14.051373 14.051373 14.128628 14.205883 14.205883 14.205883 14.205883 14.205883 14.205883 14.205883 14.205883 14.205883 14.205883 14.205883 14.205883 14.205883 14.205883 14.205883 14.205883 14.205883 14.205883 14.205883 14.205883 14.205883 14.205883 14.205883 14.205883 14.205883 14.205883 14.205883 14.205883 14.205883 14.205883 14.205883 14.205883 14.205883 14.205883 14.205883 14.205883 14.205883 14.205883 14.205883 14.205883 14.205883 14.205883 14.205883 14.205883 14.205883 14.205883 14.205883 14.205883 14.205883 14.205883 14.205883 14.205883 14.205883 14.205883 14.205883 14.205883 14.205883 14.205883 14.205883 14.205883 14.205883 14.205883 14.205883 14.205883 14.205883 14.205883 14.205883 14.205883 14.205883 14.205883 14.205883 13.819609 13.510589 13.356079 13.278824 13.201569 13.124314 10.883923 13.047059 13.047059 13.047059 13.047059 12.969805 12.969805 12.8925495 12.8925495 12.815294 12.73804 12.73804 12.815294 12.815294 12.815294 12.815294 12.815294 12.8925495 12.8925495 12.8925495 12.8925495 12.8925495 12.8925495 12.8925495 12.8925495 12.8925495 12.8925495 12.8925495 12.969805 12.969805 12.969805 12.969805 12.969805 12.969805 12.969805 12.969805 13.047059 13.047059 13.047059 13.047059 13.047059 13.047059 13.047059 13.047059 13.124314 13.201569 13.278824 13.278824 13.356079 13.201569 13.047059 12.8925495 12.815294 12.73804 12.660785 12.660785 12.660785 12.660785 12.583529 12.583529 12.583529 12.506275 12.506275 12.506275 12.506275 12.506275 12.42902 12.42902 12.42902 12.42902 12.351766 12.351766 12.351766 12.351766 12.351766 12.27451 12.351766 12.351766 12.351766 12.42902 12.42902 12.506275 12.506275 12.506275 12.506275 12.351766 12.120001 12.042746 11.96549 11.888236 11.810981 11.810981 11.810981 11.733726 11.733726 11.733726 11.733726 11.656471 11.656471 11.656471 11.656471 11.656471 11.656471 11.656471 11.656471 11.579216 11.579216 11.579216 11.579216 11.579216 11.579216 11.579216 11.656471 11.656471 11.656471 11.733726 11.733726 11.733726 11.733726 11.733726 11.733726 11.733726 11.733726 11.733726 11.733726 11.733726 11.733726 11.733726 11.733726 11.733726 11.656471 11.656471 11.579216 11.579216 11.579216 11.501962 11.501962 11.424706 11.424706 11.424706 11.424706 11.347451 11.347451 11.347451 11.347451 11.347451 11.347451 11.347451 11.347451 11.347451 11.347451 11.347451 11.424706 11.424706 11.424706 11.501962 11.888236 11.96549 12.042746 12.042746 12.120001 12.197255 12.27451 12.27451 12.351766 12.42902 12.506275 12.583529 12.583529 12.583529 12.660785 12.660785 12.660785 12.660785 14.205883
12.042746 12.042746 12.042746 12.120001 12.120001 12.120001 12.197255 12.197255 12.27451 12.27451 12.351766 12.351766 12.351766 12.42902 12.42902 12.42902 12.506275 12.506275 12.506275 12.583529 12.583529 12.583529 12.583529 12.660785 12.660785 12.660785 12.660785 12.73804 12.73804 12.73804 12.73804 12.815294 12.815294 12.815294 12.815294 12.815294 12.815294 12.8925495 12.8925495 12.8925495 12.969805 12.969805 12.969805 13.047059 13.047059 13.047059 13.124314 13.124314 13.201569 13.201569 13.201569 13.278824 13.278824 13.356079 13.356079 13.433333 13.433333 13.510589 13.587844 13.587844 13.665098 13.665098 13.742353 13.819609 13.819609 13.896863 13.974118 13.974118 14.051373 14.051373 14.128628 14.128628 14.128628 14.128628 14.128628 14.128628 14.128628 14.128628 14.128628 14.128628 14.128628 14.128628 14.128628 14.128628 14.128628 14.128628 14.128628 14.128628 14.128628 14.128628 14.128628 14.128628 14.128628 14.128628 14.128628 14.128628 14.128628 14.128628 14.128628 14.128628 14.128628 14.128628 14.128628 14.128628 14.128628 14.128628 14.128628 14.128628 14.128628 14.128628 14.128628 14.128628 14.128628 14.128628 14.128628 14.128628 14.128628 14.128628 14.128628 14.128628 14.128628 14.128628 14.128628 14.128628 14.128628 14.128628 14.128628 14.128628 14.128628 14.128628 14.128628 14.128628 14.128628 14.128628 14.128628 14.128628 14.128628 14.128628 14.128628 14.128628 14.128628 14.051373 13.665098 13.356079 13.201569 13.124314 13.124314 10.806667 10.729412 10.806667 10.806667 10.806667 10.883923 10.883923 10.883923 10.961177 10.961177 11.038432 11.038432 11.038432 11.115686 11.115686 11.115686 12.815294 12.815294 12.815294 12.815294 12.815294 12.815294 12.815294 12.8925495 12.8925495 12.8925495 12.8925495 12.8925495 12.8925495 12.8925495 12.8925495 12.8925495 12.8925495 12.969805 12.969805 12.969805 12.969805 12.969805 12.969805 12.969805 12.969805 12.969805 13.047059 13.047059 13.047059 13.047059 13.124314 13.201569 13.278824 13.356079 13.201569 13.047059 12.8925495 12.815294 12.73804 12.73804 12.660785 12.660785 12.660785 12.660785 12.583529 12.583529 12.583529 12.583529 12.506275 12.506275 12.506275 12.506275 12.42902 12.42902 12.42902 12.42902 12.351766 12.351766 12.351766 12.351766 12.351766 12.351766 12.351766 12.42902 12.42902 12.42902 12.506275 12.506275 12.506275 12.42902 12.27451 12.197255 12.120001 12.042746 11.96549 11.888236 11.810981 11.810981 11.810981 11.810981 11.810981 11.733726 11.733726 11.733726 11.733726 11.733726 11.733726 11.656471 11.656471 11.656471 11.656471 11.656471 11.656471 11.656471 11.656471 11.656471 11.656471 11.656471 11.733726 11.733726 11.733726 11.733726 11.733726 11.733726 11.733726 11.733726 11.733726 11.733726 11.733726 11.810981 11.810981 11.810981 11.733726 11.733726 11.733726 11.656471 11.656471 11.656471 11.579216 11.579216 11.501962 11.501962 11.501962 11.424706 11.424706 11.424706 11.347451 11.347451 11.270197 11.270197 11.270197 11.270197 11.270197 11.270197 11.270197 11.270197 11.270197 11.270197 11.270197 11.347451 11.347451 11.424706 11.424706 12.042746 12.120001 12.197255 12.27451 12.27451 12.351766 12.42902 12.506275 12.506275 12.506275 12.506275 12.583529 12.583529 12.583529 12.660785 12.660785 12.660785
11.96549 12.042746 12.042746 12.042746 12.120001 12.120001 12.120001 12.197255 12.197255 12.27451 12.27451 12.351766 12.351766 12.351766 12.42902 12.42902 12.42902 12.42902 12.506275 12.506275 12.506275 12.506275 12.583529 12.583529 12.583529 12.583529 12.660785 12.660785 12.660785 12.660785 12.73804 12.73804 12.73804 12.73804 12.73804 12.815294 12.815294 12.815294 12.8925495 12.8925495 12.8925495 12.969805 12.969805 12.969805 13.047059 13.047059 13.124314 13.124314 13.124314 13.201569 13.201569 13.201569 13.278824 13.278824 13.356079 13.433333 13.433333 13.510589 13.510589 13.587844 13.665098 13.665098 13.742353 13.819609 13.819609 13.896863 13.896863 13.974118 14.051373 14.051373 14.051373 14.051373 14.051373 14.051373 14.051373 14.051373 14.051373 14.051373 14.051373 14.051373 14.051373 14.051373 14.051373 14.051373 14.051373 14.051373 14.051373 14.051373 14.051373 14.051373 14.051373 14.051373 14.051373 14.051373 14.051373 14.051373 14.051373 14.051373 14.051373 14.051373 14.051373 14.051373 14.051373 14.051373 14.051373 14.051373 14.051373 14.051373 14.051373 14.051373 14.051373 14.051373 14.051373 14.051373 14.051373 14.051373 14.051373 14.051373 14.051373 14.051373 14.051373 14.051373 14.051373 14.051373 14.051373 14.051373 14.051373 14.051373 14.051373 14.051373 14.051373 14.051373 14.051373 14.051373 14.051373 14.051373 14.051373 14.051373 14.051373 14.051373 14.051373 13.974118 13.587844 13.278824 13.124314 13.047059 10.883923 10.652158 10.652158 10.652158 10.652158 10.729412 10.729412 10.729412 10.806667 10.806667 10.806667 10.883923 10.883923 10.883923 10.961177 10.961177 10.961177 11.038432 11.115686 12.815294 12.815294 12.815294 12.815294 12.815294 12.815294 12.815294 12.815294 12.815294 12.8925495 12.8925495 12.8925495 12.8925495 12.8925495 12.8925495 12.8925495 12.8925495 12.8925495 12.8925495 12.8925495 12.969805 12.969805 12.969805 12.969805 12.969805 12.969805 12.969805 12.969805 12.969805 13.047059 13.124314 13.201569 13.124314 12.969805 12.815294 12.73804 12.73804 12.660785 12.660785 12.660785 12.660785 12.660785 12.660785 12.583529 12.583529 12.583529 12.583529 12.506275 12.506275 12.506275 12.506275 12.42902 12.42902 12.42902 12.42902 12.42902 12.351766 12.351766 12.351766 12.351766 12.351766 12.42902 12.42902 12.42902 12.506275 12.506275 12.583529 12.351766 12.27451 12.197255 12.120001 12.042746 12.042746 11.96549 11.888236 11.888236 11.888236 11.810981 11.810981 11.810981 11.810981 11.733726 11.733726 11.733726 11.733726 11.733726 11.733726 11.733726 11.733726 11.656471 11.656471 11.656471 11.656471 11.733726 11.733726 11.733726 11.810981 11.810981 11.810981 11.810981 11.810981 11.810981 11.810981 11.810981 11.810981 11.810981 11.810981 11.810981 11.810981 11.810981 11.810981 11.733726 11.733726 11.656471 11.656471 11.656471 11.579216 11.579216 11.579216 11.501962 11.501962 11.424706 11.424706 11.424706 11.347451 11.347451 11.347451 11.270197 11.270197 11.270197 11.270197 11.270197 11.270197 11.270197 11.270197 11.270197 11.270197 11.270197 11.270197 11.270197 11.347451 11.347451 11.424706 12.27451 12.27451 12.351766 12.42902 12.42902 12.42902 12.42902 12.42902 12.506275 12.506275 12.506275 12.583529 12.583529 12.583529 12.660785
11.96549 12.042746 12.042746 12.042746 12.120001 12.120001 12.120001 12.197255 12.197255 12.27451 12.27451 12.27451 12.351766 12.351766 12.351766 12.351766 12.351766 12.42902 12.42902 12.42902 12.42902 12.506275 12.506275 12.506275 12.506275 12.583529 12.583529 12.583529 12.583529 12.660785 12.660785 12.660785 12.73804 12.73804 12.73804 12.815294 12.815294 12.815294 12.8925495 12.8925495 12.8925495 12.8925495 12.969805 12.969805 13.047059 13.047059 13.047059 13.124314 13.124314 13.124314 13.201569 13.201569 13.278824 13.278824 13.356079 13.433333 13.433333 13.510589 13.510589 13.587844 13.665098 13.665098 13.742353 13.742353 13.819609 13.896863 13.896863 13.974118 13.974118 13.974118 13.974118 13.974118 13.974118 13.974118 13.974118 13.974118 13.974118 13.974118 13.974118 13.974118 13.974118 13.974118 13.974118 13.974118 13.974118 13.974118 13.974118 13.974118 13.974118 13.974118 13.974118 13.974118 13.974118 13.974118 13.974118 13.974118 13.974118 13.974118 13.974118 13.974118 13.974118 13.974118 13.974118 13.974118 13.974118 13.974118 13.974118 13.974118 13.974118 13.974118 13.974118 13.974118 13.974118 13.974118 13.974118 13.974118 13.974118 13.974118 13.974118 13.974118 13.974118 13.974118 13.974118 13.974118 13.974118 13.974118 13.974118 13.974118 13.974118 13.974118 13.974118 13.974118 13.974118 13.974118 13.974118 13.974118 13.974118 13.974118 13.974118 13.974118 13.974118 13.819609 13.510589 13.124314 12.969805 10.883923 10.729412 10.574903 10.574903 10.497647 10.497647 10.574903 10.574903 10.574903 10.652158 10.652158 10.652158 10.729412 10.729412 10.729412 10.806667 10.806667 10.806667 10.883923 11.038432 11.192942 12.73804 12.73804 12.73804 12.73804 12.815294 12.815294 12.815294 12.815294 12.815294 12.815294 12.815294 12.815294 12.815294 12.8925495 12.8925495 12.8925495 12.8925495 12.8925495 12.8925495 12.8925495 12.8925495 12.8925495 12.8925495 12.969805 12.8925495 12.8925495 12.8925495 12.8925495 12.969805 13.047059 13.124314 12.969805 12.8925495 12.73804 12.73804 12.660785 12.660785 12.660785 12.660785 12.660785 12.660785 12.660785 12.660785 12.660785 12.583529 12.583529 12.583529 12.506275 12.506275 12.506275 12.506275 12.42902 12.42902 12.42902 12.42902 12.42902 12.351766 12.351766 12.351766 12.351766 12.42902 12.42902 12.506275 12.506275 12.506275 12.506275 12.42902 12.351766 12.27451 12.197255 12.120001 12.042746 11.96549 11.96549 11.96549 11.888236 11.888236 11.888236 11.888236 11.810981 11.810981 11.810981 11.810981 11.810981 11.733726 11.733726 11.733726 11.733726 11.733726 11.733726 11.733726 11.733726 11.733726 11.810981 11.810981 11.810981 11.810981 11.810981 11.810981 11.810981 11.810981 11.810981 11.810981 11.810981 11.810981 11.810981 11.810981 11.810981 11.810981 11.810981 11.733726 11.733726 11.656471 11.656471 11.656471 11.579216 11.579216 11.579216 11.501962 11.501962 11.424706 11.424706 11.424706 11.347451 11.347451 11.347451 11.270197 11.270197 11.270197 11.192942 11.192942 11.192942 11.192942 11.192942 11.192942 11.192942 11.192942 11.192942 11.192942 11.192942 11.192942 11.270197 11.270197 11.347451 12.351766 12.42902 12.42902 12.42902 12.42902 12.42902 12.42902 12.42902 12.506275 12.506275 12.506275 12.583529 12.583529
11.96549 11.96549 12.042746 12.042746 12.042746 12.120001 12.120001 12.120001 12.197255 12.197255 12.27451 12.27451 12.27451 12.27451 12.27451 12.351766 12.351766 12.351766 12.351766 12.42902 12.42902 12.42902 12.42902 12.506275 12.506275 12.506275 12.506275 12.583529 12.583529 12.583529 12.660785 12.660785 12.660785 12.73804 12.73804 12.73804 12.815294 12.815294 12.815294 12.8925495 12.8925495 12.8925495 12.969805 12.969805 12.969805 13.047059 13.047059 13.047059 13.124314 13.124314 13.201569 13.201569 13.278824 13.278824 13.356079 13.356079 13.433333 13.510589 13.510589 13.587844 13.587844 13.665098 13.742353 13.742353 13.819609 13.819609 13.819609 13.819609 13.819609 13.819609 13.819609 13.819609 13.819609 13.819609 13.819609 13.819609 13.819609 13.819609 13.819609 13.819609 13.819609 13.819609 13.819609 13.819609 13.819609 13.819609 13.819609 13.819609 13.819609 13.819609 13.819609 13.819609 13.819609 13.819609 13.819609 13.819609 13.819609 13.819609 13.819609 13.819609 13.819609 13.819609 13.819609 13.819609 13.819609 13.819609 13.819609 13.819609 13.819609 13.819609 13.819609 13.819609 13.819609 13.819609 13.819609 13.819609 13.819609 13.819609 13.819609 13.819609 13.819609 13.819609 13.819609 13.819609 13.819609 13.819609 13.819609 13.819609 13.819609 13.819609 13.819609 13.819609 13.819609 13.819609 13.819609 13.819609 13.819609 13.819609 13.819609 13.819609 13.819609 13.665098 13.356079 12.8925495 10.961177 10.806667 10.574903 10.497647 10.420393 10.420393 10.420393 10.420393 10.420393 10.497647 10.497647 10.497647 10.574903 10.574903 10.574903 10.652158 10.652158 10.652158 10.729412 10.806667 10.961177 11.038432 11.270197 12.73804 12.73804 12.73804 12.73804 12.73804 12.73804 12.73804 12.815294 12.815294 12.815294 12.815294 12.815294 12.815294 12.815294 12.815294 12.815294 12.8925495 12.8925495 12.8925495 12.8925495 12.8925495 12.8925495 12.8925495 12.8925495 12.8925495 12.815294 12.815294 12.8925495 12.969805 13.047059 12.8925495 12.815294 12.73804 12.660785 12.660785 12.660785 12.660785 12.660785 12.660785 12.660785 12.583529 12.583529 12.583529 12.583529 12.583529 12.583529 12.583529 12.506275 12.506275 12.506275 12.506275 12.506275 12.42902 12.42902 12.42902 12.42902 12.351766 12.351766 12.42902 12.42902 12.42902 12.506275 12.506275 12.506275 12.583529 12.506275 12.42902 12.351766 12.27451 12.197255 12.120001 12.042746 12.042746 11.96549 11.96549 11.96549 11.96549 11.888236 11.888236 11.888236 11.888236 11.810981 11.810981 11.810981 11.810981 11.810981 11.810981 11.810981 11.733726 11.733726 11.810981 11.810981 11.810981 11.810981 11.810981 11.810981 11.810981 11.888236 11.888236 11.888236 11.888236 11.888236 11.888236 11.888236 11.888236 11.888236 11.888236 11.810981 11.810981 11.733726 11.733726 11.733726 11.656471 11.656471 11.579216 11.579216 11.579216 11.501962 11.501962 11.501962 11.424706 11.424706 11.424706 11.347451 11.347451 11.270197 11.270197 11.270197 11.192942 11.192942 11.192942 11.192942 11.192942 11.192942 11.192942 11.192942 11.192942 11.192942 11.192942 11.192942 11.192942 11.192942 11.192942 11.270197 11.270197 12.351766 12.351766 12.351766 12.351766 12.351766 12.351766 12.42902 12.506275 12.506275 12.506275 12.506275
11.96549 11.96549 12.042746 12.042746 12.042746 12.120001 12.120001 12.120001 12.197255 12.197255 12.197255 12.197255 12.27451 12.27451 12.27451 12.27451 12.351766 12.351766 12.351766 12.351766 12.42902 12.42902 12.42902 12.42902 12.506275 12.506275 12.506275 12.506275 12.583529 12.583529 12.660785 12.660785 12.660785 12.73804 12.73804 12.73804 12.815294 12.815294 12.815294 12.8925495 12.8925495 12.8925495 12.8925495 12.969805 12.969805 13.047059 13.047059 13.047059 13.124314 13.124314 13.124314 13.201569 13.278824 13.278824 13.356079 13.356079 13.433333 13.510589 13.510589 13.587844 13.587844 13.665098 13.665098 13.742353 13.742353 13.742353 13.742353 13.742353 13.742353 13.742353 13.742353 13.742353 13.742353 13.742353 13.742353 13.742353 13.742353 13.742353 13.742353 13.742353 13.742353 13.742353 13.742353 13.742353 13.742353 13.742353 13.742353 13.742353 13.742353 13.742353 13.742353 13.742353 13.742353 13.742353 13.742353 13.742353 13.742353 13.742353 13.742353 13.742353 13.742353 13.742353 13.742353 13.742353 13.742353 13.742353 13.742353 13.742353 13.742353 13.742353 13.742353 13.742353 13.742353 13.742353 13.742353 13.742353 13.742353 13.742353 13.742353 13.742353 13.742353 13.742353 13.742353 13.742353 13.742353 13.742353 13.742353 13.742353 13.742353 13.742353 13.742353 13.742353 13.742353 13.742353 13.742353 13.742353 13.742353 13.742353 13.742353 13.742353 13.742353 13.510589 12.73804 10.961177 10.883923 10.729412 10.420393 10.343138 10.343138 10.2658825 10.2658825 10.2658825 10.2658825 10.343138 10.343138 10.343138 10.420393 10.420393 10.420393 10.497647 10.497647 10.497647 10.574903 10.729412 10.883923 10.961177 11.115686 11.347451 12.660785 12.660785 12.73804 12.73804 12.73804 12.73804 12.73804 12.73804 12.73804 12.73804 12.73804 12.815294 12.815294 12.815294 12.815294 12.815294 12.815294 12.815294 12.815294 12.815294 12.8925495 12.815294 12.815294 12.815294 12.815294 12.815294 12.815294 12.8925495 12.8925495 12.815294 12.73804 12.73804 12.660785 12.660785 12.660785 12.583529 12.583529 12.583529 12.583529 12.583529 12.583529 12.583529 12.583529 12.583529 12.583529 12.506275 12.506275 12.506275 12.506275 12.506275 12.506275 12.506275 12.42902 12.42902 12.42902 12.42902 12.351766 12.42902 12.42902 12.42902 12.506275 12.506275 12.506275 12.506275 12.506275 12.42902 12.351766 12.27451 12.27451 12.120001 12.120001 12.042746 12.042746 12.042746 12.042746 11.96549 11.96549 11.96549 11.96549 11.888236 11.888236 11.888236 11.888236 11.810981 11.810981 11.810981 11.810981 11.810981 11.810981 11.810981 11.888236 11.888236 11.888236 11.888236 11.888236 11.888236 11.888236 11.888236 11.888236 11.888236 11.888236 11.888236 11.888236 11.888236 11.888236 11.888236 11.810981 11.810981 11.733726 11.733726 11.733726 11.656471 11.656471 11.656471 11.579216 11.579216 11.501962 11.501962 11.501962 11.424706 11.424706 11.424706 11.347451 11.347451 11.347451 11.270197 11.270197 11.192942 11.192942 11.192942 11.192942 11.192942 11.192942 11.192942 11.192942 11.192942 11.192942 11.192942 11.192942 11.192942 11.192942 11.192942 11.192942 11.192942 11.192942 11.192942 12.351766 12.351766 12.27451 12.351766 12.351766 12.351766 12.42902 12.506275 12.506275
11.96549 11.96549 12.042746 12.042746 12.042746 12.120001 12.120001 12.120001 12.120001 12.197255 12.197255 12.197255 12.197255 12.27451 12.27451 12.27451 12.27451 12.351766 12.351766 12.351766 12.351766 12.351766 12.42902 12.42902 12.42902 12.506275 12.506275 12.506275 12.583529 12.583529 12.583529 12.660785 12.660785 12.660785 12.73804 12.73804 12.73804 12.815294 12.815294 12.815294 12.8925495 12.8925495 12.8925495 12.969805 12.969805 12.969805 13.047059 13.047059 13.047059 13.124314 13.124314 13.201569 13.278824 13.278824 13.356079 13.356079 13.433333 13.433333 13.510589 13.587844 13.587844 13.665098 13.665098 13.665098 13.665098 13.665098 13.665098 13.665098 13.665098 13.665098 13.665098 13.665098 13.665098 13.665098 13.665098 13.665098 13.665098 13.665098 13.665098 13.665098 13.665098 13.665098 13.665098 13.665098 13.665098 13.665098 13.665098 13.665098 13.665098 13.665098 13.665098 13.665098 13.665098 13.665098 13.665098 13.665098 13.665098 13.665098 13.665098 13.665098 13.665098 13.665098 13.665098 13.665098 13.665098 13.665098 13.665098 13.665098 13.665098 13.665098 13.665098 13.665098 13.665098 13.665098 13.665098 13.665098 13.665098 13.665098 13.665098 13.665098 13.665098 13.665098 13.665098 13.665098 13.665098 13.665098 13.665098 13.665098 13.665098 13.665098 13.665098 13.665098 13.665098 13.665098 13.665098 13.665098 13.665098 13.665098 13.665098 13.665098 13.587844 12.583529 11.038432 10.883923 10.806667 10.574903 10.2658825 10.2658825 10.2658825 10.188628 10.188628 10.111373 10.188628 10.188628 10.188628 10.2658825 10.2658825 10.2658825 10.343138 10.343138 10.343138 10.420393 10.497647 10.652158 10.729412 10.883923 11.038432 11.192942 11.424706 12.660785 12.660785 12.660785 12.660785 12.660785 12.73804 12.73804 12.73804 12.73804 12.73804 12.73804 12.73804 12.73804 12.73804 12.815294 12.815294 12.815294 12.815294 12.815294 12.815294 12.815294 12.815294 12.73804 12.73804 12.73804 12.73804 12.73804 12.815294 12.73804 12.73804 12.660785 12.660785 12.583529 12.583529 12.583529 12.583529 12.583529 12.583529 12.583529 12.583529 12.506275 12.506275 12.506275 12.506275 12.506275 12.506275 12.506275 12.506275 12.506275 12.506275 12.506275 12.506275 12.42902 12.42902 12.42902 12.42902 12.42902 12.42902 12.506275 12.506275 12.506275 12.506275 12.506275 12.506275 12.506275 12.42902 12.351766 12.27451 12.197255 12.120001 12.120001 12.120001 12.120001 12.042746 12.042746 12.042746 12.042746 11.96549 11.96549 11.96549 11.888236 11.888236 11.888236 11.888236 11.888236 11.888236 11.888236 11.888236 11.888236 11.888236 11.888236 11.888236 11.888236 11.888236 11.888236 11.888236 11.888236 11.888236 11.888236 11.888236 11.888236 11.888236 11.888236 11.888236 11.888236 11.810981 11.810981 11.810981 11.733726 11.733726 11.656471 11.656471 11.656471 11.579216 11.579216 11.579216 11.501962 11.501962 11.424706 11.424706 11.424706 11.347451 11.347451 11.347451 11.270197 11.270197 11.192942 11.192942 11.192942 11.115686 11.115686 11.115686 11.115686 11.115686 11.115686 11.115686 11.115686 11.115686 11.115686 11.115686 11.115686 11.115686 11.115686 11.115686 11.115686 11.115686 11.192942 11.192942 12.27451 12.27451 12.27451 12.351766 12.42902 12.42902
11.96549 11.96549 11.96549 12.042746 12.042746 12.042746 12.120001 12.120001 12.120001 12.120001 12.120001 12.197255 12.197255 12.197255 12.27451 12.27451 12.27451 12.27451 12.27451 12.351766 12.351766 12.351766 12.42902 12.42902 12.42902 12.42902 12.506275 12.506275 12.506275 12.583529 12.583529 12.660785 12.660785 12.660785 12.73804 12.73804 12.73804 12.815294 12.815294 12.815294 12.8925495 12.8925495 12.8925495 12.8925495 12.969805 12.969805 12.969805 13.047059 13.047059 13.124314 13.124314 13.201569 13.201569 13.278824 13.278824 13.356079 13.433333 13.433333 13.510589 13.510589 13.587844 13.587844 13.587844 13.587844 13.587844 13.587844 13.587844 13.587844 13.587844 13.587844 13.587844 13.587844 13.587844 13.587844 13.587844 13.587844 13.587844 13.587844 13.587844 13.587844 13.587844 13.587844 13.587844 13.587844 13.587844 13.587844 13.587844 13.587844 13.587844 13.587844 13.587844 13.587844 13.587844 13.587844 13.587844 13.587844 13.587844 13.587844 13.587844 13.587844 13.587844 13.587844 13.587844 13.587844 13.587844 13.587844 13.587844 13.587844 13.587844 13.587844 13.587844 13.587844 13.587844 13.587844 13.587844 13.587844 13.587844 13.587844 13.587844 13.587844 13.587844 13.587844 13.587844 13.587844 13.587844 13.587844 13.587844 13.587844 13.587844 13.587844 13.587844 13.587844 13.587844 13.587844 13.587844 13.587844 13.587844 13.587844 13.587844 13.587844 13.124314 11.038432 10.961177 10.806667 10.652158 10.343138 10.188628 10.188628 10.111373 10.111373 10.111373 10.034119 10.034119 10.034119 10.111373 10.111373 10.111373 10.188628 10.188628 10.188628 10.188628 10.2658825 10.420393 10.574903 10.652158 10.806667 10.883923 11.038432 11.270197 11.501962 12.583529 12.660785 12.660785 12.660785 12.660785 12.660785 12.660785 12.660785 12.660785 12.73804 12.73804 12.73804 12.73804 12.73804 12.73804 12.73804 12.73804 12.73804 12.73804 12.73804 12.73804 12.73804 12.660785 12.660785 12.660785 12.660785 12.73804 12.73804 12.73804 12.660785 12.660785 12.583529 12.583529 12.583529 12.583529 12.506275 12.506275 12.506275 12.506275 12.506275 12.506275 12.506275 12.506275 12.506275 12.506275 12.506275 12.506275 12.506275 12.42902 12.42902 12.42902 12.42902 12.42902 12.42902 12.42902 12.42902 12.42902 12.42902 12.42902 12.42902 12.42902 12.506275 12.506275 12.506275 12.506275 12.42902 12.351766 12.27451 12.197255 12.197255 12.120001 12.120001 12.120001 12.120001 12.120001 12.042746 12.042746 12.042746 12.042746 11.96549 11.96549 11.96549 11.888236 11.888236 11.888236 11.888236 11.888236 11.888236 11.888236 11.96549 11.96549 11.96549 11.96549 11.96549 11.96549 11.96549 11.96549 11.96549 11.96549 11.96549 11.96549 11.96549 11.888236 11.888236 11.810981 11.810981 11.810981 11.733726 11.733726 11.733726 11.656471 11.656471 11.579216 11.579216 11.579216 11.501962 11.501962 11.424706 11.424706 11.424706 11.424706 11.347451 11.347451 11.270197 11.270197 11.270197 11.192942 11.192942 11.115686 11.115686 11.115686 11.115686 11.115686 11.115686 11.115686 11.115686 11.115686 11.115686 11.115686 11.115686 11.115686 11.115686 11.115686 11.115686 11.115686 11.115686 11.115686 11.115686 11.115686 12.27451 12.27451 12.27451 12.351766
11.96549 11.96549 11.96549 12.042746 12.042746 12.042746 12.042746 12.042746 12.120001 12.120001 12.120001 12.120001 12.197255 12.197255 12.197255 12.197255 12.27451 12.27451 12.27451 12.351766 12.351766 12.351766 12.351766 12.42902 12.42902 12.42902 12.506275 12.506275 12.506275 12.583529 12.583529 12.583529 12.660785 12.660785 12.660785 12.73804 12.73804 12.73804 12.815294 12.815294 12.815294 12.8925495 12.8925495 12.8925495 12.969805 12.969805 12.969805 13.047059 13.047059 13.124314 13.124314 13.201569 13.201569 13.278824 13.278824 13.356079 13.433333 13.433333 13.510589 13.510589 13.510589 13.510589 13.510589 13.510589 13.510589 13.510589 13.510589 13.510589 13.510589 13.510589 13.510589 13.510589 13.510589 13.510589 13.510589 13.510589 13.510589 13.510589 13.510589 13.510589 13.510589 13.510589 13.510589 13.510589 13.510589 13.510589 13.510589 13.510589 13.510589 13.510589 13.510589 13.510589 13.510589 13.510589 13.510589 13.510589 13.510589 13.510589 13.510589 13.510589 13.510589 13.510589 13.510589 13.510589 13.510589 13.510589 13.510589 13.510589 13.510589 13.510589 13.510589 13.510589 13.510589 13.510589 13.510589 13.510589 13.510589 13.510589 13.510589 13.510589 13.510589 13.510589 13.510589 13.510589 13.510589 13.510589 13.510589 13.510589 13.510589 13.510589 13.510589 13.510589 13.510589 13.510589 13.510589 13.510589 13.510589 13.510589 13.510589 13.124314 11.115686 10.961177 10.883923 10.729412 10.497647 10.2658825 10.111373 10.034119 10.034119 10.034119 9.956863 9.956863 9.956863 9.956863 9.956863 9.956863 10.034119 10.034119 10.034119 10.111373 10.111373 10.188628 10.343138 10.420393 10.574903 10.652158 10.806667 10.961177 11.038432 11.347451 11.579216 12.506275 12.583529 12.583529 12.660785 12.660785 12.660785 12.660785 12.660785 12.660785 12.660785 12.660785 12.660785 12.73804 12.73804 12.73804 12.73804 12.73804 12.73804 12.660785 12.660785 12.660785 12.660785 12.660785 12.583529 12.583529 12.660785 12.73804 12.660785 12.660785 12.583529 12.583529 12.506275 12.506275 12.506275 12.506275 12.506275 12.506275 12.506275 12.506275 12.506275 12.506275 12.506275 12.506275 12.42902 12.42902 12.42902 12.42902 12.42902 12.42902 12.42902 12.42902 12.42902 12.42902 12.42902 12.42902 12.42902 12.42902 12.42902 12.42902 12.42902 12.42902 12.42902 12.42902 12.506275 12.506275 12.42902 12.351766 12.27451 12.27451 12.197255 12.197255 12.197255 12.120001 12.120001 12.120001 12.120001 12.042746 12.042746 12.042746 12.042746 12.042746 11.96549 11.96549 11.96549 11.96549 11.96549 11.96549 11.96549 11.96549 11.96549 11.96549 11.96549 11.96549 11.96549 11.96549 11.96549 11.96549 11.96549 11.96549 11.96549 11.96549 11.888236 11.888236 11.888236 11.810981 11.810981 11.733726 11.733726 11.733726 11.656471 11.656471 11.656471 11.579216 11.579216 11.501962 11.501962 11.501962 11.424706 11.424706 11.424706 11.347451 11.347451 11.270197 11.270197 11.270197 11.192942 11.192942 11.192942 11.115686 11.115686 11.115686 11.115686 11.115686 11.115686 11.115686 11.115686 11.115686 11.115686 11.115686 11.115686 11.115686 11.115686 11.115686 11.115686 11.115686 11.115686 11.115686 11.115686 11.115686 11.115686 12.197255 12.27451
11.888236 11.96549 11.96549 11.96549 12.042746 12.042746 12.042746 12.042746 12.042746 12.120001 12.120001 12.120001 12.120001 12.197255 12.197255 12.197255 12.27451 12.27451 12.27451 12.27451 12.351766 12.351766 12.351766 12.42902 12.42902 12.42902 12.506275 12.506275 12.506275 12.506275 12.583529 12.583529 12.660785 12.660785 12.660785 12.73804 12.73804 12.73804 12.815294 12.815294 12.815294 12.8925495 12.8925495 12.8925495 12.969805 12.969805 12.969805 13.047059 13.047059 13.124314 13.124314 13.201569 13.201569 13.278824 13.278824 13.356079 13.356079 13.433333 13.433333 13.433333 13.433333 13.433333 13.433333 13.433333 13.433333 13.433333 13.433333 13.433333 13.433333 13.433333 13.433333 13.433333 13.433333 13.433333 13.433333 13.433333 13.433333 13.433333 13.433333 13.433333 13.433333 13.433333 13.433333 13.433333 13.433333 13.433333 13.433333 13.433333 13.433333 13.433333 13.433333 13.433333 13.433333 13.433333 13.433333 13.433333 13.433333 13.433333 13.433333 13.433333 13.433333 13.433333 13.433333 13.433333 13.433333 13.433333 13.433333 13.433333 13.433333 13.433333 13.433333 13.433333 13.433333 13.433333 13.433333 13.433333 13.433333 13.433333 13.433333 13.433333 13.433333 13.433333 13.433333 13.433333 13.433333 13.433333 13.433333 13.433333 13.433333 13.433333 13.433333 13.433333 13.433333 13.433333 13.433333 13.433333 13.433333 13.433333 13.201569 11.115686 11.038432 10.883923 10.806667 10.652158 10.343138 10.111373 10.034119 9.956863 9.956863 9.956863 9.879608 9.879608 9.802354 9.802354 9.802354 9.879608 9.879608 9.879608 9.956863 9.956863 10.034119 10.111373 10.2658825 10.343138 10.497647 10.574903 10.729412 10.806667 10.961177 11.115686 11.424706 11.656471 12.42902 12.506275 12.583529 12.583529 12.583529 12.583529 12.660785 12.660785 12.660785 12.660785 12.660785 12.660785 12.660785 12.660785 12.660785 12.660785 12.660785 12.660785 12.660785 12.583529 12.583529 12.583529 12.506275 12.506275 12.506275 12.660785 12.660785 12.583529 12.583529 12.506275 12.506275 12.506275 12.506275 12.506275 12.506275 12.506275 12.506275 12.506275 12.42902 12.42902 12.42902 12.42902 12.42902 12.42902 12.42902 12.42902 12.42902 12.42902 12.42902 12.42902 12.42902 12.351766 12.42902 12.42902 12.42902 12.42902 12.42902 12.42902 12.42902 12.42902 12.42902 12.42902 12.42902 12.42902 12.42902 12.351766 12.351766 12.27451 12.27451 12.27451 12.27451 12.197255 12.197255 12.197255 12.120001 12.120001 12.120001 12.120001 12.042746 12.042746 12.042746 12.042746 11.96549 11.96549 11.96549 11.96549 11.96549 12.042746 12.042746 12.042746 12.042746 12.042746 12.042746 12.042746 12.042746 12.042746 12.042746 12.042746 11.96549 11.96549 11.888236 11.888236 11.888236 11.810981 11.810981 11.810981 11.733726 11.733726 11.656471 11.656471 11.656471 11.579216 11.579216 11.579216 11.501962 11.501962 11.424706 11.424706 11.424706 11.347451 11.347451 11.347451 11.270197 11.270197 11.192942 11.192942 11.192942 11.115686 11.115686 11.115686 11.038432 11.038432 11.038432 11.038432 11.038432 11.038432 11.038432 11.038432 11.038432 11.038432 11.038432 11.038432 11.038432 11.038432 11.038432 11.038432 11.038432 11.038432 11.038432 11.038432 11.038432
11.888236 11.888236 11.96549 11.96549 11.96549 12.042746 12.042746 12.042746 12.042746 12.042746 12.120001 12.120001 12.120001 12.120001 12.197255 12.197255 12.197255 12.27451 12.27451 12.27451 12.351766 12.351766 12.351766 12.351766 12.42902 12.42902 12.42902 12.506275 12.506275 12.506275 12.583529 12.583529 12.583529 12.660785 12.660785 12.660785 12.73804 12.73804 12.73804 12.815294 12.815294 12.8925495 12.8925495 12.8925495 12.969805 12.969805 12.969805 13.047059 13.047059 13.124314 13.124314 13.201569 13.201569 13.278824 13.278824 13.278824 13.278824 13.278824 13.278824 13.278824 13.278824 13.278824 13.278824 13.278824 13.278824 13.278824 13.278824 13.278824 13.278824 13.278824 13.278824 13.278824 13.278824 13.278824 13.278824 13.278824 13.278824 13.278824 13.278824 13.278824 13.278824 13.278824 13.278824 13.278824 13.278824 13.278824 13.278824 13.278824 13.278824 13.278824 13.278824 13.278824 13.278824 13.278824 13.278824 13.278824 13.278824 13.278824 13.278824 13.278824 13.278824 13.278824 13.278824 13.278824 13.278824 13.278824 13.278824 13.278824 13.278824 13.278824 13.278824 13.278824 13.278824 13.278824 13.278824 13.278824 13.278824 13.278824 13.278824 13.278824 13.278824 13.278824 13.278824 13.278824 13.278824 13.278824 13.278824 13.278824 13.278824 13.278824 13.278824 13.278824 13.278824 13.278824 13.278824 13.278824 13.278824 13.278824 11.115686 11.038432 10.961177 10.806667 10.729412 10.497647 10.188628 9.956863 9.879608 9.879608 9.879608 9.802354 9.802354 9.802354 9.725099 9.725099 9.725099 9.725099 9.725099 9.802354 9.802354 9.879608 9.956863 10.034119 10.188628 10.2658825 10.343138 10.497647 10.574903 10.729412 10.883923 10.961177 11.192942 11.501962 11.810981 12.42902 12.42902 12.506275 12.583529 12.583529 12.583529 12.583529 12.583529 12.583529 12.583529 12.660785 12.660785 12.660785 12.660785 12.583529 12.583529 12.583529 12.583529 12.506275 12.506275 12.506275 12.506275 12.506275 12.42902 12.42902 12.506275 12.583529 12.506275 12.506275 12.506275 12.506275 12.506275 12.42902 12.42902 12.42902 12.42902 12.42902 12.42902 12.42902 12.42902 12.42902 12.42902 12.42902 12.42902 12.42902 12.42902 12.351766 12.351766 12.351766 12.351766 12.351766 12.42902 12.42902 12.42902 12.42902 12.42902 12.42902 12.42902 12.42902 12.42902 12.42902 12.42902 12.42902 12.42902 12.42902 12.351766 12.351766 12.351766 12.351766 12.27451 12.27451 12.27451 12.27451 12.197255 12.197255 12.197255 12.120001 12.120001 12.120001 12.042746 12.042746 12.042746 11.96549 11.96549 11.96549 11.96549 12.042746 12.042746 12.042746 12.042746 12.042746 12.042746 12.042746 12.042746 12.042746 12.042746 12.042746 11.96549 11.96549 11.888236 11.888236 11.888236 11.810981 11.810981 11.810981 11.733726 11.733726 11.656471 11.656471 11.656471 11.579216 11.579216 11.579216 11.501962 11.501962 11.424706 11.424706 11.424706 11.347451 11.347451 11.347451 11.270197 11.270197 11.270197 11.192942 11.192942 11.115686 11.115686 11.115686 11.038432 11.038432 11.038432 11.038432 11.038432 11.038432 11.038432 11.038432 11.038432 11.038432 11.038432 11.038432 11.038432 11.038432 11.038432 11.038432 11.038432 11.038432 11.038432 11.038432 11.038432
11.888236 11.888236 11.888236 11.96549 11.96549 11.96549 11.96549 12.042746 12.042746 12.042746 12.042746 12.120001 12.120001 12.120001 12.120001 12.197255 12.197255 12.27451 12.27451 12.27451 12.27451 12.351766 12.351766 12.351766 12.42902 12.42902 12.42902 12.506275 12.506275 12.506275 12.506275 12.583529 12.583529 12.660785 12.660785 12.660785 12.73804 12.73804 12.73804 12.815294 12.815294 12.8925495 12.8925495 12.8925495 12.969805 12.969805 12.969805 13.047059 13.047059 13.124314 13.124314 13.124314 13.201569 13.201569 13.201569 13.201569 13.201569 13.201569 13.201569 13.201569 13.201569 13.201569 13.201569 13.201569 13.201569 13.201569 13.201569 13.201569 13.201569 13.201569 13.201569 13.201569 13.201569 13.201569 13.201569 13.201569 13.201569 13.201569 13.201569 13.201569 13.201569 13.201569 13.201569 13.201569 13.201569 13.201569 13.201569 13.201569 13.201569 13.201569 13.201569 13.201569 13.201569 13.201569 13.201569 13.201569 13.201569 13.201569 13.201569 13.201569 13.201569 13.201569 13.201569 13.201569 13.201569 13.201569 13.201569 13.201569 13.201569 13.201569 13.201569 13.201569 13.201569 13.201569 13.201569 13.201569 13.201569 13.201569 13.201569 13.201569 13.201569 13.201569 13.201569 13.201569 13.201569 13.201569 13.201569 13.201569 13.201569 13.201569 13.201569 13.201569 13.201569 13.201569 13.201569 13.201569 13.201569 11.192942 11.115686 10.961177 10.883923 10.729412 10.574903 10.2658825 10.034119 9.879608 9.802354 9.802354 9.802354 9.725099 9.725099 9.647843 9.647843 9.647843 9.570589 9.647843 9.647843 9.647843 9.647843 9.725099 9.879608 9.956863 10.034119 10.188628 10.2658825 10.420393 10.497647 10.652158 10.729412 10.883923 11.038432 11.270197 11.579216 11.888236 12.351766 12.42902 12.42902 12.506275 12.506275 12.506275 12.583529 12.583529 12.583529 12.583529 12.583529 12.583529 12.583529 12.583529 12.506275 12.506275 12.506275 12.506275 12.506275 12.42902 12.42902 12.42902 12.42902 12.42902 12.42902 12.351766 12.351766 12.42902 12.42902 12.42902 12.42902 12.42902 12.42902 12.42902 12.42902 12.42902 12.42902 12.42902 12.42902 12.42902 12.42902 12.351766 12.351766 12.351766 12.351766 12.351766 12.351766 12.351766 12.351766 12.351766 12.42902 12.42902 12.42902 12.42902 12.42902 12.42902 12.42902 12.42902 12.42902 12.42902 12.42902 12.42902 12.42902 12.42902 12.42902 12.42902 12.42902 12.351766 12.351766 12.351766 12.351766 12.27451 12.27451 12.27451 12.27451 12.197255 12.120001 12.120001 12.042746 12.042746 12.042746 11.96549 11.96549 11.96549 11.96549 11.888236 11.888236 11.96549 12.042746 12.042746 12.120001 12.120001 12.120001 12.120001 12.042746 12.042746 12.042746 11.96549 11.96549 11.888236 11.888236 11.888236 11.810981 11.810981 11.733726 11.733726 11.656471 11.656471 11.656471 11.579216 11.579216 11.579216 11.501962 11.501962 11.501962 11.424706 11.424706 11.424706 11.347451 11.347451 11.270197 11.270197 11.270197 11.192942 11.192942 11.192942 11.115686 11.115686 11.115686 11.038432 11.038432 11.038432 11.038432 11.038432 11.038432 11.038432 11.038432 11.038432 11.038432 11.038432 11.038432 11.038432 11.038432 11.038432 11.038432 11.038432 11.038432 11.038432 11.038432
11.888236 11.888236 11.888236 11.888236 11.96549 11.96549 11.96549 11.96549 12.042746 12.042746 12.042746 12.120001 12.120001 12.120001 12.120001 12.197255 12.197255 12.197255 12.27451 12.27451 12.27451 12.351766 12.351766 12.351766 12.351766 12.42902 12.42902 12.42902 12.506275 12.506275 12.506275 12.583529 12.583529 12.660785 12.660785 12.660785 12.73804 12.73804 12.815294 12.815294 12.815294 12.8925495 12.8925495 12.8925495 12.969805 12.969805 12.969805 13.047059 13.047059 13.124314 13.124314 13.124314 13.124314 13.124314 13.124314 13.124314 13.124314 13.124314 13.124314 13.124314 13.124314 13.124314 13.124314 13.124314 13.124314 13.124314 13.124314 13.124314 13.124314 13.124314 13.124314 13.124314 13.124314 13.124314 13.124314 13.124314 13.124314 13.124314 13.124314 13.124314 13.124314 13.124314 13.124314 13.124314 13.124314 13.124314 13.124314 13.124314 13.124314 13.124314 13.124314 13.124314 13.124314 13.124314 13.124314 13.124314 13.124314 13.124314 13.124314 13.124314 13.124314 13.124314 13.124314 13.124314 13.124314 13.124314 13.124314 13.124314 13.124314 13.124314 13.124314 13.124314 13.124314 13.124314 13.124314 13.124314 13.124314 13.124314 13.124314 13.124314 13.124314 13.124314 13.124314 13.124314 13.124314 13.124314 13.124314 13.124314 13.124314 13.124314 13.124314 13.124314 13.124314 13.124314 13.124314 13.124314 11.192942 11.115686 11.038432 10.883923 10.806667 10.729412 10.420393 10.188628 9.879608 9.725099 9.725099 9.725099 9.647843 9.647843 9.647843 9.570589 9.570589 9.570589 9.493334 9.493334 9.493334 9.570589 9.570589 9.647843 9.802354 9.879608 9.956863 10.111373 10.188628 10.2658825 10.420393 10.574903 10.652158 10.806667 10.883923 11.038432 11.347451 11.656471 11.96549 12.27451 12.351766 12.42902 12.42902 12.506275 12.506275 12.506275 12.506275 12.506275 12.583529 12.506275 12.506275 12.506275 12.506275 12.506275 12.42902 12.42902 12.42902 12.42902 12.42902 12.42902 12.351766 12.351766 12.351766 12.351766 12.351766 12.351766 12.27451 12.27451 12.351766 12.42902 12.42902 12.42902 12.42902 12.42902 12.42902 12.351766 12.351766 12.351766 12.351766 12.351766 12.351766 12.351766 12.351766 12.351766 12.351766 12.351766 12.351766 12.351766 12.42902 12.42902 12.42902 12.42902 12.42902 12.42902 12.42902 12.42902 12.42902 12.42902 12.42902 12.42902 12.42902 12.42902 12.42902 12.42902 12.42902 12.42902 12.42902 12.42902 12.351766 12.351766 12.351766 12.27451 12.27451 12.197255 12.120001 12.120001 12.042746 12.042746 12.042746 12.042746 11.96549 11.96549 11.96549 11.888236 11.888236 11.888236 11.888236 11.888236 12.042746 12.120001 12.120001 12.120001 12.042746 12.042746 12.042746 11.96549 11.96549 11.888236 11.888236 11.888236 11.810981 11.810981 11.733726 11.733726 11.656471 11.656471 11.656471 11.656471 11.579216 11.579216 11.501962 11.501962 11.501962 11.424706 11.424706 11.424706 11.347451 11.347451 11.347451 11.270197 11.270197 11.192942 11.192942 11.192942 11.115686 11.115686 11.115686 11.038432 11.038432 11.038432 10.961177 10.961177 10.961177 10.961177 10.961177 10.961177 10.961177 10.961177 10.961177 10.961177 10.961177 10.961177 10.961177 10.961177 10.961177 11.038432 11.038432
11.810981 11.888236 11.888236 11.888236 11.888236 11.96549 11.96549 11.96549 12.042746 12.042746 12.042746 12.042746 12.120001 12.120001 12.120001 12.120001 12.197255 12.197255 12.27451 12.27451 12.27451 12.27451 12.351766 12.351766 12.351766 12.42902 12.42902 12.42902 12.506275 12.506275 12.506275 12.583529 12.583529 12.660785 12.660785 12.660785 12.73804 12.73804 12.815294 12.815294 12.815294 12.8925495 12.8925495 12.8925495 12.969805 12.969805 12.969805 13.047059 13.047059 13.047059 13.047059 13.047059 13.047059 13.047059 13.047059 13.047059 13.047059 13.047059 13.047059 13.047059 13.047059 13.047059 13.047059 13.047059 13.047059 13.047059 13.047059 13.047059 13.047059 13.047059 13.047059 13.047059 13.047059 13.047059 13.047059 13.047059 13.047059 13.047059 13.047059 13.047059 13.047059 13.047059 13.047059 13.047059 13.047059 13.047059 13.047059 13.047059 13.047059 13.047059 13.047059 13.047059 13.047059 13.047059 13.047059 13.047059 13.047059 13.047059 13.047059 13.047059 13.047059 13.047059 13.047059 13.047059 13.047059 13.047059 13.047059 13.047059 13.047059 13.047059 13.047059 13.047059 13.047059 13.047059 13.047059 13.047059 13.047059 13.047059 13.047059 13.047059 13.047059 13.047059 13.047059 13.047059 13.047059 13.047059 13.047059 13.047059 13.047059 13.047059 13.047059 13.047059 13.047059 13.047059 13.047059 11.270197 11.115686 11.038432 10.961177 10.806667 10.729412 10.574903 10.2658825 10.034119 9.802354 9.647843 9.647843 9.647843 9.570589 9.570589 9.570589 9.493334 9.493334 9.493334 9.4160795 9.4160795 9.4160795 9.4160795 9.493334 9.570589 9.725099 9.802354 9.879608 10.034119 10.111373 10.188628 10.343138 10.420393 10.574903 10.652158 10.806667 10.961177 11.115686 11.424706 11.733726 12.042746 12.197255 12.27451 12.351766 12.42902 12.42902 12.506275 12.506275 12.506275 12.506275 12.506275 12.506275 12.42902 12.42902 12.42902 12.42902 12.42902 12.351766 12.351766 12.351766 12.351766 12.351766 12.351766 12.27451 12.27451 12.27451 12.27451 12.27451 12.27451 12.27451 12.197255 12.197255 12.197255 12.27451 12.351766 12.351766 12.351766 12.351766 12.351766 12.351766 12.351766 12.351766 12.351766 12.351766 12.351766 12.351766 12.351766 12.351766 12.351766 12.42902 12.42902 12.42902 12.42902 12.42902 12.42902 12.42902 12.42902 12.42902 12.42902 12.42902 12.42902 12.42902 12.42902 12.42902 12.42902 12.42902 12.42902 12.42902 12.42902 12.42902 12.351766 12.351766 12.27451 12.27451 12.197255 12.120001 12.120001 12.120001 12.042746 12.042746 12.042746 12.042746 11.96549 11.96549 11.96549 11.888236 11.888236 11.888236 11.810981 11.656471 11.656471 11.888236 12.042746 12.042746 12.042746 12.042746 11.96549 11.96549 11.888236 11.888236 11.888236 11.810981 11.810981 11.810981 11.733726 11.656471 11.656471 11.656471 11.656471 11.579216 11.579216 11.579216 11.501962 11.501962 11.424706 11.424706 11.424706 11.347451 11.347451 11.347451 11.270197 11.270197 11.192942 11.192942 11.192942 11.115686 11.115686 11.115686 11.038432 11.038432 11.038432 10.961177 10.961177 10.961177 10.961177 10.961177 10.961177 10.961177 10.961177 10.961177 10.961177 10.961177 10.961177 10.961177 10.961177 10.961177 11.038432 11.038432
11.810981 11.810981 11.888236 11.888236 11.888236 11.888236 11.96549 11.96549 11.96549 12.042746 12.042746 12.042746 12.042746 12.120001 12.120001 12.120001 12.197255 12.197255 12.197255 12.27451 12.27451 12.27451 12.351766 12.351766 12.351766 12.42902 12.42902 12.42902 12.506275 12.506275 12.506275 12.583529 12.583529 12.660785 12.660785 12.660785 12.73804 12.73804 12.815294 12.815294 12.815294 12.8925495 12.8925495 12.8925495 12.969805 12.969805 12.969805 12.969805 12.969805 12.969805 12.969805 12.969805 12.969805 12.969805 12.969805 12.969805 12.969805 12.969805 12.969805 12.969805 12.969805 12.969805 12.969805 12.969805 12.969805 12.969805 12.969805 12.969805 12.969805 12.969805 12.969805 12.969805 12.969805 12.969805 12.969805 12.969805 12.969805 12.969805 12.969805 12.969805 12.969805 12.969805 12.969805 12.969805 12.969805 12.969805 12.969805 12.969805 12.969805 12.969805 12.969805 12.969805 12.969805 12.969805 12.969805 12.969805 12.969805 12.969805 12.969805 12.969805 12.969805 12.969805 12.969805 12.969805 12.969805 12.969805 12.969805 12.969805 12.969805 12.969805 12.969805 12.969805 12.969805 12.969805 12.969805 12.969805 12.969805 12.969805 12.969805 12.969805 12.969805 12.969805 12.969805 12.969805 12.969805 12.969805 12.969805 12.969805 12.969805 12.969805 12.969805 12.969805 12.969805 12.969805 11.347451 11.192942 11.115686 10.961177 10.883923 10.729412 10.652158 10.343138 10.111373 9.879608 9.647843 9.570589 9.570589 9.493334 9.493334 9.493334 9.4160795 9.4160795 9.4160795 9.338824 9.338824 9.338824 9.261569 9.338824 9.4160795 9.493334 9.647843 9.725099 9.802354 9.956863 10.034119 10.111373 10.2658825 10.343138 10.497647 10.574903 10.729412 10.806667 10.961177 11.192942 11.501962 11.810981 12.042746 12.120001 12.197255 12.27451 12.351766 12.42902 12.42902 12.42902 12.42902 12.42902 12.42902 12.42902 12.42902 12.351766 12.351766 12.351766 12.351766 12.351766 12.351766 12.351766 12.27451 12.27451 12.27451 12.27451 12.27451 12.27451 12.27451 12.197255 12.197255 12.197255 12.197255 12.197255 12.197255 12.27451 12.351766 12.351766 12.351766 12.351766 12.351766 12.351766 12.27451 12.27451 12.27451 12.27451 12.27451 12.351766 12.351766 12.351766 12.42902 12.42902 12.42902 12.42902 12.42902 12.42902 12.42902 12.42902 12.42902 12.42902 12.42902 12.42902 12.42902 12.42902 12.42902 12.42902 12.42902 12.42902 12.42902 12.42902 12.42902 12.351766 12.351766 12.27451 12.27451 12.197255 12.197255 12.120001 12.120001 12.042746 12.042746 12.042746 12.042746 11.96549 11.96549 11.96549 11.96549 11.888236 11.733726 11.656471 11.579216 11.501962 11.424706 11.424706 11.579216 11.810981 11.96549 11.96549 11.96549 11.96549 11.888236 11.888236 11.810981 11.810981 11.810981 11.733726 11.656471 11.656471 11.656471 11.656471 11.579216 11.579216 11.579216 11.501962 11.501962 11.424706 11.424706 11.424706 11.424706 11.347451 11.347451 11.270197 11.270197 11.270197 11.192942 11.192942 11.115686 11.115686 11.115686 11.038432 11.038432 11.038432 11.038432 10.961177 10.961177 10.961177 10.883923 10.883923 10.883923 10.883923 10.883923 10.883923 10.883923 10.883923 10.883923 10.961177 10.961177 11.038432 11.038432
11.810981 11.810981 11.888236 11.888236 11.888236 11.888236 11.96549 11.96549 11.96549 12.042746 12.042746 12.042746 12.042746 12.120001 12.120001 12.120001 12.120001 12.197255 12.197255 12.27451 12.27451 12.27451 12.351766 12.351766 12.351766 12.42902 12.42902 12.42902 12.506275 12.506275 12.506275 12.583529 12.583529 12.660785 12.660785 12.660785 12.73804 12.73804 12.815294 12.815294 12.815294 12.8925495 12.8925495 12.8925495 12.8925495 12.8925495 12.8925495 12.8925495 12.8925495 12.8925495 12.8925495 12.8925495 12.8925495 12.8925495 12.8925495 12.8925495 12.8925495 12.8925495 12.8925495 12.8925495 12.8925495 12.8925495 12.8925495 12.8925495 12.8925495 12.8925495 12.8925495 12.8925495 12.8925495 12.8925495 12.8925495 12.8925495 12.8925495 12.8925495 12.8925495 12.8925495 12.8925495 12.8925495 12.8925495 12.8925495 12.8925495 12.8925495 12.8925495 12.8925495 12.8925495 12.8925495 12.8925495 12.8925495 12.8925495 12.8925495 12.8925495 12.8925495 12.8925495 12.8925495 12.8925495 12.8925495 12.8925495 12.8925495 12.8925495 12.8925495 12.8925495 12.8925495 12.8925495 12.8925495 12.8925495 12.8925495 12.8925495 12.8925495 12.8925495 12.8925495 12.8925495 12.8925495 12.8925495 12.8925495 12.8925495 12.8925495 12.8925495 12.8925495 12.8925495 12.8925495 12.8925495 12.8925495 12.8925495 12.8925495 12.8925495 12.8925495 12.8925495 12.8925495 12.8925495 12.8925495 12.8925495 12.8925495 12.8925495 11.347451 11.192942 11.115686 11.038432 10.883923 10.806667 10.729412 10.497647 10.2658825 9.956863 9.725099 9.493334 9.493334 9.493334 9.4160795 9.4160795 9.4160795 9.338824 9.338824 9.338824 9.261569 9.261569 9.261569 9.184315 9.261569 9.338824 9.493334 9.570589 9.647843 9.725099 9.879608 9.956863 10.034119 10.188628 10.2658825 10.343138 10.497647 10.574903 10.729412 10.883923 11.038432 11.270197 11.579216 11.888236 11.96549 12.042746 12.120001 12.197255 12.27451 12.351766 12.42902 12.42902 12.42902 12.42902 12.42902 12.351766 12.351766 12.351766 12.351766 12.351766 12.351766 12.351766 12.351766 12.27451 12.27451 12.27451 12.27451 12.27451 12.27451 12.27451 12.197255 12.197255 12.197255 12.197255 12.197255 12.197255 12.197255 12.27451 12.351766 12.27451 12.27451 12.27451 12.27451 12.27451 12.27451 12.27451 12.27451 12.27451 12.351766 12.351766 12.351766 12.42902 12.42902 12.42902 12.42902 12.42902 12.42902 12.42902 12.42902 12.42902 12.42902 12.42902 12.42902 12.42902 12.42902 12.42902 12.42902 12.42902 12.351766 12.351766 12.351766 12.351766 12.351766 12.351766 12.27451 12.27451 12.197255 12.197255 12.120001 12.120001 12.120001 12.042746 12.042746 12.042746 12.042746 11.96549 11.888236 11.810981 11.733726 11.656471 11.579216 11.501962 11.424706 11.270197 11.192942 11.115686 11.192942 11.347451 11.501962 11.733726 11.96549 11.888236 11.888236 11.888236 11.810981 11.810981 11.733726 11.656471 11.579216 11.579216 11.579216 11.579216 11.579216 11.579216 11.501962 11.501962 11.501962 11.424706 11.424706 11.424706 11.347451 11.347451 11.270197 11.270197 11.270197 11.192942 11.192942 11.192942 11.115686 11.115686 11.115686 11.038432 11.038432 11.038432 10.961177 10.961177 10.961177 10.883923 10.883923 10.883923 10.883923 10.883923 10.883923 10.883923 10.883923 10.883923 10.961177 10.961177 11.038432 11.038432
11.810981 11.810981 11.810981 11.888236 11.888236 11.888236 11.888236 11.96549 11.96549 11.96549 12.042746 12.042746 12.042746 12.120001 12.120001 12.120001 12.197255 12.197255 12.197255 12.27451 12.27451 12.27451 12.351766 12.351766 12.351766 12.42902 12.42902 12.42902 12.506275 12.506275 12.506275 12.583529 12.583529 12.660785 12.660785 12.660785 12.73804 12.73804 12.815294 12.815294 12.815294 12.815294 12.815294 12.815294 12.815294 12.815294 12.815294 12.815294 12.815294 12.815294 12.815294 12.815294 12.815294 12.815294 12.815294 12.815294 12.815294 12.815294 12.815294 12.815294 12.815294 12.815294 12.815294 12.815294 12.815294 12.815294 12.815294 12.815294 12.815294 12.815294 12.815294 12.815294 12.815294 12.815294 12.815294 12.815294 12.815294 12.815294 12.815294 12.815294 12.815294 12.815294 12.815294 12.815294 12.815294 12.815294 12.815294 12.815294 12.815294 12.815294 12.815294 12.815294 12.815294 12.815294 12.815294 12.815294 12.815294 12.815294 12.815294 12.815294 12.815294 12.815294 12.815294 12.815294 12.815294 12.815294 12.815294 12.815294 12.815294 12.815294 12.815294 12.815294 12.815294 12.815294 12.815294 12.815294 12.815294 12.815294 12.815294 12.815294 12.815294 12.815294 12.815294 12.815294 12.815294 12.815294 12.815294 12.815294 12.815294 12.815294 12.815294 12.815294 11.424706 11.270197 11.115686 11.038432 10.961177 10.806667 10.729412 10.652158 10.343138 10.111373 9.879608 9.570589 9.4160795 9.4160795 9.4160795 9.338824 9.338824 9.338824 9.261569 9.261569 9.261569 9.184315 9.184315 9.184315 9.184315 9.184315 9.261569 9.338824 9.493334 9.570589 9.647843 9.725099 9.879608 9.956863 10.034119 10.188628 10.2658825 10.420393 10.497647 10.652158 10.729412 10.883923 11.115686 11.347451 11.656471 11.888236 11.96549 12.042746 12.120001 12.197255 12.27451 12.27451 12.351766 12.42902 12.42902 12.42902 12.351766 12.351766 12.351766 12.351766 12.351766 12.351766 12.351766 12.27451 12.27451 12.27451 12.27451 12.27451 12.27451 12.27451 12.27451 12.197255 12.197255 12.197255 12.197255 12.197255 12.197255 12.120001 12.197255 12.27451 12.27451 12.27451 12.27451 12.27451 12.27451 12.27451 12.27451 12.27451 12.27451 12.351766 12.351766 12.351766 12.42902 12.42902 12.506275 12.42902 12.42902 12.42902 12.42902 12.42902 12.42902 12.42902 12.42902 12.42902 12.42902 12.42902 12.42902 12.42902 12.351766 12.351766 12.351766 12.27451 12.27451 12.27451 12.27451 12.27451 12.27451 12.197255 12.197255 12.120001 12.120001 12.120001 12.120001 12.042746 12.042746 12.042746 11.888236 11.810981 11.733726 11.656471 11.579216 11.424706 11.347451 11.270197 11.192942 11.115686 11.038432 10.961177 10.883923 10.961177 11.115686 11.424706 11.888236 11.888236 11.888236 11.810981 11.810981 11.733726 11.656471 11.579216 11.579216 11.579216 11.579216 11.579216 11.579216 11.501962 11.501962 11.501962 11.424706 11.424706 11.424706 11.347451 11.347451 11.347451 11.270197 11.270197 11.192942 11.192942 11.192942 11.115686 11.115686 11.115686 11.038432 11.038432 11.038432 10.961177 10.961177 10.961177 10.883923 10.883923 10.883923 10.883923 10.883923 10.883923 10.883923 10.883923 10.883923 10.961177 10.961177 11.038432 11.038432
11.810981 11.810981 11.810981 11.888236 11.888236 11.888236 11.888236 11.888236 11.96549 11.96549 12.042746 12.042746 12.042746 12.120001 12.120001 12.120001 12.197255 12.197255 12.197255 12.27451 12.27451 12.27451 12.351766 12.351766 12.351766 12.42902 12.42902 12.42902 12.506275 12.506275 12.506275 12.583529 12.583529 12.660785 12.660785 12.660785 12.73804 12.73804 12.73804 12.73804 12.73804 12.73804 12.73804 12.73804 12.73804 12.73804 12.73804 12.73804 12.73804 12.73804 12.73804 12.73804 12.73804 12.73804 12.73804 12.73804 12.73804 12.73804 12.73804 12.73804 12.73804 12.73804 12.73804 12.73804 12.73804 12.73804 12.73804 12.73804 12.73804 12.73804 12.73804 12.73804 12.73804 12.73804 12.73804 12.73804 12.73804 12.73804 12.73804 12.73804 12.73804 12.73804 12.73804 12.73804 12.73804 12.73804 12.73804 12.73804 12.73804 12.73804 12.73804 12.73804 12.73804 12.73804 12.73804 12.73804 12.73804 12.73804 12.73804 12.73804 12.73804 12.73804 12.73804 12.73804 12.73804 12.73804 12.73804 12.73804 12.73804 12.73804 12.73804 12.73804 12.73804 12.73804 12.73804 12.73804 12.73804 12.73804 12.73804 12.73804 12.73804 12.73804 12.73804 12.73804 12.73804 12.73804 12.73804 12.73804 12.73804 12.73804 12.73804 12.73804 11.347451 11.192942 11.115686 10.961177 10.883923 10.729412 10.652158 10.497647 10.188628 9.956863 9.725099 9.493334 9.338824 9.338824 9.338824 9.261569 9.261569 9.261569 9.184315 9.184315 9.184315 9.1070595 9.1070595 9.1070595 9.1070595 9.1070595 9.184315 9.338824 9.4160795 9.493334 9.570589 9.647843 9.802354 9.879608 9.956863 10.111373 10.188628 10.2658825 10.420393 10.574903 10.652158 10.806667 10.883923 11.192942 11.424706 11.733726 11.810981 11.888236 11.96549 12.042746 12.120001 12.197255 12.27451 12.351766 12.351766 12.351766 12.351766 12.351766 12.351766 12.351766 12.351766 12.351766 12.351766 12.27451 12.27451 12.27451 12.27451 12.27451 12.27451 12.27451 12.27451 12.197255 12.197255 12.197255 12.197255 12.197255 12.197255 12.120001 12.120001 12.197255 12.27451 12.27451 12.27451 12.27451 12.27451 12.27451 12.27451 12.27451 12.27451 12.351766 12.351766 12.351766 12.42902 12.42902 12.506275 12.506275 12.506275 12.42902 12.42902 12.42902 12.42902 12.42902 12.42902 12.42902 12.42902 12.42902 12.42902 12.351766 12.351766 12.27451 12.27451 12.27451 12.27451 12.27451 12.27451 12.27451 12.27451 12.197255 12.197255 12.120001 12.120001 12.120001 12.120001 12.042746 11.96549 11.888236 11.810981 11.733726 11.579216 11.501962 11.424706 11.347451 11.270197 11.192942 11.115686 11.038432 10.961177 10.883923 10.806667 10.729412 10.652158 10.729412 11.347451 11.888236 11.888236 11.810981 11.733726 11.733726 11.656471 11.579216 11.579216 11.579216 11.579216 11.579216 11.579216 11.579216 11.501962 11.501962 11.424706 11.424706 11.424706 11.347451 11.347451 11.347451 11.270197 11.270197 11.270197 11.192942 11.192942 11.115686 11.115686 11.115686 11.038432 11.038432 11.038432 10.961177 10.961177 10.961177 10.883923 10.883923 10.883923 10.806667 10.806667 10.806667 10.883923 10.883923 10.883923 10.961177 10.961177 11.038432 11.038432
