15.364707 15.364707 15.364707 15.364707 15.364707 15.364707 15.287453 15.287453 15.287453 15.287453 15.287453 15.210197 15.210197 15.210197 15.210197 15.210197 15.210197 15.210197 15.210197 15.210197 15.210197 15.210197 15.210197 15.210197 15.210197 15.210197 15.210197 15.210197 15.210197 15.210197 15.287453 15.287453 15.287453 15.287453 15.287453 15.287453 15.364707 15.364707 15.364707 15.364707 15.364707 15.364707 15.364707 15.364707 15.364707 15.441962 15.441962 15.441962 15.441962 15.441962 15.5192175 15.5192175 15.596472 15.596472 15.596472 15.673727 15.673727 15.750982 15.750982 15.828237 15.828237 15.828237 15.905492 15.905492 15.905492 15.905492 15.982746 15.982746 15.982746 15.982746 15.982746 15.982746 15.982746 15.982746 15.982746 15.982746 15.982746 15.982746 15.982746 15.982746 15.982746 15.905492 15.905492 15.905492 15.828237 15.828237 15.828237 15.828237 15.750982 15.750982 15.750982 15.750982 15.750982 15.750982 15.750982 15.750982 15.750982 15.750982 15.750982 15.750982 15.750982 15.750982 15.750982 15.750982 15.750982 15.750982 15.673727 15.673727 15.673727 15.673727 15.673727 15.596472 15.596472 15.596472 15.596472 15.673727 15.673727 15.673727 15.750982 15.750982 15.750982 15.750982 15.828237 15.828237 15.828237 15.905492 15.905492 15.905492 15.905492 15.055687 14.978432 14.901176 14.901176 14.901176 14.901176 14.823922 14.823922 14.823922 14.823922 14.823922 14.823922 14.823922 14.823922 14.823922 14.823922 14.823922 14.823922 14.823922 14.901176 14.901176 14.901176 14.901176 14.901176 14.901176 14.901176 14.978432 14.978432 14.901176 14.901176 14.901176 14.901176 14.901176 14.901176 14.901176 14.901176 14.901176 14.901176 14.823922 14.823922 14.823922 14.823922 14.823922 14.823922 14.823922 14.901176 14.901176 14.901176 14.978432 14.978432 14.978432 15.055687 15.055687 15.132942 15.132942 15.210197 15.210197 15.210197 15.287453 15.287453 15.364707 15.364707 15.364707 15.364707 15.441962 15.596472 16.137257 16.137257 16.137257 16.137257 16.137257 16.137257 16.137257 16.137257 16.060001 16.060001 16.060001 16.060001 16.060001 15.982746 13.974118 13.974118 13.974118 13.974118 13.974118 13.896863 13.819609 13.819609 13.742353 13.742353 13.665098 13.587844 13.510589 13.433333 13.278824 13.278824 13.201569 13.124314 13.047059 12.969805 12.969805 12.969805 12.8925495 12.8925495 12.8925495 12.969805 12.969805 13.047059 13.047059 13.124314 13.124314 13.124314 13.124314 13.124314 13.124314 13.124314 13.124314 13.124314 13.124314 13.124314 13.124314 13.124314 13.124314 13.124314 13.124314 13.047059 13.047059 13.047059 12.969805 12.969805 12.969805 12.8925495 12.8925495 12.815294 12.815294 12.815294 12.73804 12.73804 12.660785 12.660785 12.660785 12.583529 12.583529 12.583529 12.506275 12.506275 12.506275 12.506275 12.506275 12.506275 12.42902 12.42902 12.506275 12.506275 12.506275 12.506275 12.506275 12.583529 15.287453 15.287453 15.210197 15.210197 15.210197 15.132942 15.132942 15.055687 15.055687 14.978432 14.978432 14.901176 14.823922 14.669412 14.514902 14.283137 14.128628 14.051373 13.974118 13.896863 13.819609 13.742353 13.665098 13.587844
15.364707 15.364707 15.364707 15.364707 15.364707 15.364707 15.364707 15.364707 15.287453 15.287453 15.287453 15.287453 15.287453 15.287453 15.287453 15.287453 15.287453 15.287453 15.210197 15.210197 15.210197 15.210197 15.210197 15.210197 15.210197 15.210197 15.287453 15.287453 15.287453 15.287453 15.287453 15.287453 15.287453 15.364707 15.364707 15.364707 15.364707 15.364707 15.364707 15.364707 15.364707 15.441962 15.441962 15.441962 15.441962 15.441962 15.441962 15.441962 15.5192175 15.5192175 15.5192175 15.596472 15.596472 15.596472 15.673727 15.673727 15.750982 15.750982 15.828237 15.828237 15.828237 15.905492 15.905492 15.905492 15.982746 15.982746 15.982746 15.982746 15.982746 16.060001 16.060001 16.060001 16.060001 16.060001 16.060001 16.060001 16.060001 16.060001 15.982746 15.982746 15.982746 15.982746 15.982746 15.905492 15.905492 15.828237 15.828237 15.828237 15.828237 15.828237 15.828237 15.828237 15.828237 15.828237 15.828237 15.828237 15.828237 15.828237 15.828237 15.828237 15.828237 15.828237 15.828237 15.750982 15.750982 15.750982 15.750982 15.750982 15.673727 15.673727 15.673727 15.673727 15.673727 15.673727 15.673727 15.673727 15.673727 15.750982 15.750982 15.750982 15.750982 15.828237 15.828237 15.828237 15.905492 15.905492 15.905492 15.982746 15.982746 15.055687 14.978432 14.978432 14.978432 14.901176 14.901176 14.901176 14.901176 14.901176 14.901176 14.823922 14.823922 14.823922 14.823922 14.823922 14.823922 14.901176 14.901176 14.901176 14.901176 14.901176 14.901176 14.978432 14.978432 14.978432 14.978432 14.978432 14.978432 14.978432 14.978432 14.978432 14.978432 14.978432 14.978432 14.901176 14.901176 14.901176 14.901176 14.901176 14.901176 14.901176 14.901176 14.901176 14.901176 14.901176 14.901176 14.901176 14.978432 14.978432 14.978432 15.055687 15.055687 15.132942 15.132942 15.210197 15.210197 15.210197 15.287453 15.287453 15.364707 15.364707 15.364707 15.441962 15.441962 15.441962 15.5192175 15.982746 16.137257 16.137257 16.214512 16.214512 16.214512 16.137257 16.137257 16.137257 16.137257 16.060001 16.060001 16.060001 13.974118 13.896863 13.896863 13.974118 13.974118 13.896863 13.896863 13.896863 13.819609 13.819609 13.742353 13.665098 13.587844 13.510589 13.433333 13.278824 13.278824 13.201569 13.124314 13.047059 13.047059 12.969805 12.969805 12.969805 12.8925495 12.969805 12.969805 13.047059 13.047059 13.124314 13.124314 13.124314 13.124314 13.124314 13.201569 13.201569 13.201569 13.201569 13.201569 13.201569 13.201569 13.124314 13.124314 13.124314 13.124314 13.124314 13.124314 13.047059 13.047059 13.047059 12.969805 12.969805 12.8925495 12.8925495 12.8925495 12.815294 12.815294 12.73804 12.73804 12.660785 12.660785 12.660785 12.660785 12.583529 12.583529 12.583529 12.506275 12.506275 12.506275 12.506275 12.506275 12.506275 12.506275 12.506275 12.506275 12.506275 12.506275 12.583529 12.583529 15.364707 15.287453 15.287453 15.210197 15.210197 15.210197 15.132942 15.132942 15.055687 14.978432 14.978432 14.901176 14.746667 14.592157 14.360393 14.205883 14.128628 13.974118 13.974118 13.819609 13.819609 13.665098 13.587844 13.510589
15.441962 15.441962 15.441962 15.441962 15.441962 15.441962 15.364707 15.364707 15.364707 15.364707 15.364707 15.364707 15.287453 15.287453 15.287453 15.287453 15.287453 15.287453 15.287453 15.287453 15.287453 15.287453 15.287453 15.287453 15.287453 15.287453 15.287453 15.287453 15.287453 15.287453 15.364707 15.364707 15.364707 15.364707 15.364707 15.364707 15.364707 15.441962 15.441962 15.441962 15.441962 15.441962 15.441962 15.441962 15.441962 15.441962 15.5192175 15.5192175 15.5192175 15.5192175 15.596472 15.596472 15.596472 15.673727 15.673727 15.750982 15.750982 15.828237 15.828237 15.828237 15.905492 15.905492 15.982746 15.982746 15.982746 15.982746 16.060001 16.060001 16.060001 16.060001 16.060001 16.060001 16.060001 16.060001 16.060001 16.060001 16.060001 16.060001 16.060001 16.060001 16.060001 15.982746 15.982746 15.982746 15.905492 15.905492 15.905492 15.828237 15.828237 15.828237 15.828237 15.828237 15.828237 15.828237 15.828237 15.828237 15.828237 15.828237 15.828237 15.828237 15.828237 15.828237 15.828237 15.828237 15.828237 15.828237 15.750982 15.750982 15.750982 15.750982 15.750982 15.750982 15.673727 15.673727 15.750982 15.750982 15.750982 15.750982 15.750982 15.828237 15.828237 15.828237 15.828237 15.905492 15.905492 15.982746 15.982746 15.982746 15.982746 15.132942 15.055687 14.978432 14.978432 14.978432 14.978432 14.901176 14.901176 14.901176 14.901176 14.901176 14.901176 14.901176 14.901176 14.901176 14.901176 14.901176 14.901176 14.901176 14.978432 14.978432 14.978432 14.978432 14.978432 14.978432 14.978432 14.978432 14.978432 14.978432 14.978432 14.978432 14.978432 14.978432 14.978432 14.978432 14.978432 14.901176 14.901176 14.901176 14.901176 14.901176 14.901176 14.901176 14.901176 14.901176 14.978432 14.978432 14.978432 14.978432 15.055687 15.055687 15.132942 15.132942 15.210197 15.210197 15.210197 15.287453 15.287453 15.364707 15.364707 15.441962 15.441962 15.441962 15.441962 15.441962 15.5192175 15.828237 16.137257 16.214512 16.214512 16.214512 16.214512 16.214512 16.137257 16.137257 16.137257 16.137257 14.051373 13.974118 13.974118 13.974118 13.974118 13.974118 13.974118 13.896863 13.896863 13.896863 13.819609 13.819609 13.742353 13.665098 13.587844 13.510589 13.356079 13.278824 13.278824 13.201569 13.124314 13.047059 13.047059 12.969805 12.969805 12.969805 12.969805 12.969805 12.969805 13.047059 13.124314 13.124314 13.124314 13.201569 13.201569 13.201569 13.201569 13.201569 13.201569 13.201569 13.201569 13.201569 13.201569 13.201569 13.201569 13.201569 13.124314 13.124314 13.124314 13.124314 13.047059 13.047059 13.047059 12.969805 12.969805 12.8925495 12.8925495 12.815294 12.815294 12.815294 12.73804 12.73804 12.660785 12.660785 12.660785 12.660785 12.583529 12.583529 12.583529 12.506275 12.506275 12.506275 12.506275 12.506275 12.506275 12.506275 12.506275 12.583529 12.583529 12.583529 12.660785 15.364707 15.287453 15.287453 15.287453 15.210197 15.210197 15.132942 15.132942 15.055687 14.978432 14.978432 14.823922 14.669412 14.514902 14.360393 14.205883 14.051373 13.974118 13.896863 13.819609 13.742353 13.665098 13.587844 13.510589
15.441962 15.441962 15.441962 15.441962 15.441962 15.441962 15.441962 15.441962 15.441962 15.364707 15.364707 15.364707 15.364707 15.364707 15.364707 15.364707 15.364707 15.364707 15.287453 15.287453 15.287453 15.287453 15.287453 15.287453 15.287453 15.287453 15.287453 15.364707 15.364707 15.364707 15.364707 15.364707 15.364707 15.364707 15.441962 15.441962 15.441962 15.441962 15.441962 15.441962 15.441962 15.441962 15.441962 15.5192175 15.5192175 15.5192175 15.5192175 15.5192175 15.5192175 15.596472 15.596472 15.596472 15.673727 15.673727 15.673727 15.750982 15.750982 15.828237 15.828237 15.905492 15.905492 15.982746 15.982746 15.982746 16.060001 16.060001 16.060001 16.060001 16.060001 16.060001 16.137257 16.137257 16.137257 16.137257 16.137257 16.137257 16.137257 16.137257 16.060001 16.060001 16.060001 16.060001 16.060001 15.982746 15.982746 15.982746 15.905492 15.905492 15.905492 15.905492 15.905492 15.905492 15.905492 15.905492 15.905492 15.905492 15.905492 15.905492 15.905492 15.905492 15.905492 15.905492 15.905492 15.828237 15.828237 15.828237 15.828237 15.828237 15.750982 15.750982 15.750982 15.750982 15.750982 15.750982 15.750982 15.750982 15.750982 15.750982 15.828237 15.828237 15.828237 15.905492 15.905492 15.905492 15.982746 15.982746 15.982746 16.060001 16.060001 15.132942 15.055687 15.055687 14.978432 14.978432 14.978432 14.978432 14.978432 14.978432 14.901176 14.901176 14.901176 14.901176 14.901176 14.901176 14.901176 14.978432 14.978432 14.978432 14.978432 14.978432 14.978432 14.978432 14.978432 15.055687 15.055687 15.055687 15.055687 15.055687 15.055687 15.055687 15.055687 14.978432 14.978432 14.978432 14.978432 14.978432 14.978432 14.978432 14.978432 14.901176 14.901176 14.901176 14.978432 14.978432 14.978432 14.978432 15.055687 15.055687 15.055687 15.132942 15.132942 15.210197 15.210197 15.210197 15.287453 15.287453 15.364707 15.364707 15.441962 15.441962 15.441962 15.441962 15.5192175 15.5192175 15.5192175 15.596472 16.137257 16.214512 16.214512 16.214512 16.214512 16.214512 16.214512 16.137257 16.137257 16.137257 13.974118 13.974118 13.974118 13.974118 13.974118 13.974118 13.974118 13.974118 13.896863 13.896863 13.819609 13.819609 13.742353 13.665098 13.587844 13.510589 13.356079 13.356079 13.278824 13.201569 13.124314 13.047059 13.047059 13.047059 12.969805 12.969805 12.969805 12.969805 13.047059 13.124314 13.124314 13.201569 13.201569 13.201569 13.201569 13.201569 13.201569 13.201569 13.201569 13.201569 13.201569 13.201569 13.201569 13.201569 13.201569 13.201569 13.201569 13.124314 13.124314 13.124314 13.124314 13.047059 13.047059 12.969805 12.969805 12.8925495 12.8925495 12.8925495 12.815294 12.815294 12.73804 12.73804 12.73804 12.660785 12.660785 12.660785 12.660785 12.583529 12.583529 12.583529 12.583529 12.506275 12.506275 12.506275 12.506275 12.583529 12.583529 12.583529 12.583529 12.660785 12.660785 15.364707 15.364707 15.287453 15.287453 15.210197 15.210197 15.210197 15.132942 15.055687 14.978432 14.901176 14.823922 14.592157 14.437648 14.283137 14.128628 14.051373 13.974118 13.896863 13.819609 13.742353 13.665098 13.587844 13.510589
15.5192175 15.5192175 15.5192175 15.5192175 15.5192175 15.5192175 15.441962 15.441962 15.441962 15.441962 15.441962 15.441962 15.441962 15.441962 15.364707 15.364707 15.364707 15.364707 15.364707 15.364707 15.364707 15.364707 15.364707 15.364707 15.364707 15.364707 15.364707 15.364707 15.364707 15.364707 15.364707 15.441962 15.441962 15.441962 15.441962 15.441962 15.441962 15.441962 15.5192175 15.5192175 15.5192175 15.5192175 15.5192175 15.5192175 15.5192175 15.5192175 15.5192175 15.596472 15.596472 15.596472 15.596472 15.673727 15.673727 15.673727 15.750982 15.750982 15.828237 15.828237 15.905492 15.905492 15.982746 15.982746 15.982746 16.060001 16.060001 16.060001 16.060001 16.137257 16.137257 16.137257 16.137257 16.137257 16.137257 16.137257 16.137257 16.137257 16.137257 16.137257 16.137257 16.137257 16.137257 16.060001 16.060001 16.060001 15.982746 15.982746 15.982746 15.982746 15.905492 15.905492 15.905492 15.905492 15.905492 15.905492 15.905492 15.905492 15.905492 15.905492 15.982746 15.982746 15.982746 15.905492 15.905492 15.905492 15.905492 15.905492 15.828237 15.828237 15.828237 15.828237 15.828237 15.750982 15.750982 15.750982 15.750982 15.750982 15.828237 15.828237 15.828237 15.828237 15.905492 15.905492 15.905492 15.982746 15.982746 15.982746 16.060001 16.060001 16.060001 15.132942 15.132942 15.055687 15.055687 15.055687 14.978432 14.978432 14.978432 14.978432 14.978432 14.978432 14.978432 14.978432 14.978432 14.978432 14.978432 14.978432 14.978432 14.978432 14.978432 14.978432 15.055687 15.055687 15.055687 15.055687 15.055687 15.055687 15.055687 15.055687 15.055687 15.055687 15.055687 15.055687 15.055687 15.055687 14.978432 14.978432 14.978432 14.978432 14.978432 14.978432 14.978432 14.978432 14.978432 14.978432 14.978432 15.055687 15.055687 15.055687 15.132942 15.132942 15.210197 15.210197 15.210197 15.287453 15.287453 15.364707 15.364707 15.441962 15.441962 15.441962 15.5192175 15.5192175 15.5192175 15.5192175 15.596472 15.596472 16.060001 16.214512 16.214512 16.214512 16.214512 16.214512 16.214512 16.214512 16.214512 14.051373 13.974118 13.974118 13.974118 13.974118 13.974118 13.974118 13.974118 13.974118 13.896863 13.896863 13.819609 13.819609 13.742353 13.665098 13.587844 13.510589 13.356079 13.356079 13.278824 13.201569 13.124314 13.124314 13.047059 13.047059 13.047059 12.969805 12.969805 13.047059 13.047059 13.124314 13.201569 13.201569 13.201569 13.201569 13.278824 13.278824 13.278824 13.278824 13.278824 13.278824 13.278824 13.278824 13.278824 13.278824 13.201569 13.201569 13.201569 13.201569 13.201569 13.124314 13.124314 13.047059 13.047059 13.047059 12.969805 12.969805 12.8925495 12.8925495 12.815294 12.815294 12.815294 12.73804 12.73804 12.73804 12.660785 12.660785 12.660785 12.660785 12.583529 12.583529 12.583529 12.583529 12.583529 12.583529 12.583529 12.583529 12.583529 12.660785 12.660785 12.660785 12.660785 15.441962 15.364707 15.364707 15.287453 15.287453 15.210197 15.210197 15.132942 15.055687 14.978432 14.901176 14.669412 14.514902 14.360393 14.205883 14.128628 14.051373 13.974118 13.896863 13.819609 13.742353 13.665098 13.587844 13.510589
15.5192175 15.5192175 15.5192175 15.5192175 15.5192175 15.5192175 15.5192175 15.5192175 15.5192175 15.441962 15.441962 15.441962 15.441962 15.441962 15.441962 15.441962 15.441962 15.441962 15.441962 15.364707 15.364707 15.364707 15.364707 15.364707 15.364707 15.364707 15.364707 15.441962 15.441962 15.441962 15.441962 15.441962 15.441962 15.441962 15.441962 15.5192175 15.5192175 15.5192175 15.5192175 15.5192175 15.5192175 15.5192175 15.5192175 15.596472 15.596472 15.596472 15.596472 15.596472 15.596472 15.596472 15.673727 15.673727 15.673727 15.750982 15.750982 15.828237 15.828237 15.905492 15.905492 15.982746 15.982746 15.982746 16.060001 16.060001 16.060001 16.137257 16.137257 16.137257 16.137257 16.137257 16.137257 16.214512 16.214512 16.214512 16.214512 16.214512 16.214512 16.214512 16.214512 16.137257 16.137257 16.137257 16.137257 16.060001 16.060001 16.060001 15.982746 15.982746 15.982746 15.982746 15.982746 15.982746 15.982746 15.982746 15.982746 15.982746 15.982746 15.982746 15.982746 15.982746 15.982746 15.982746 15.982746 15.982746 15.905492 15.905492 15.905492 15.905492 15.828237 15.828237 15.828237 15.828237 15.828237 15.828237 15.828237 15.828237 15.828237 15.828237 15.905492 15.905492 15.905492 15.982746 15.982746 15.982746 15.982746 16.060001 16.060001 16.060001 16.060001 15.210197 15.132942 15.132942 15.055687 15.055687 15.055687 15.055687 15.055687 14.978432 14.978432 14.978432 14.978432 14.978432 14.978432 14.978432 14.978432 14.978432 14.978432 15.055687 15.055687 15.055687 15.055687 15.055687 15.055687 15.132942 15.132942 15.132942 15.132942 15.132942 15.132942 15.132942 15.055687 15.055687 15.055687 15.055687 15.055687 15.055687 14.978432 14.978432 14.978432 14.978432 14.978432 14.978432 14.978432 15.055687 15.055687 15.055687 15.132942 15.132942 15.132942 15.210197 15.210197 15.210197 15.287453 15.287453 15.364707 15.364707 15.441962 15.441962 15.441962 15.5192175 15.5192175 15.5192175 15.596472 15.596472 15.596472 15.596472 15.673727 16.137257 16.214512 16.291765 16.291765 16.214512 16.214512 16.214512 16.214512 14.051373 14.051373 14.051373 13.974118 13.974118 13.974118 13.974118 13.974118 13.974118 13.896863 13.896863 13.819609 13.819609 13.742353 13.665098 13.587844 13.433333 13.433333 13.356079 13.278824 13.201569 13.124314 13.124314 13.047059 13.047059 13.047059 13.047059 13.047059 13.047059 13.124314 13.201569 13.201569 13.201569 13.278824 13.278824 13.278824 13.278824 13.278824 13.278824 13.278824 13.278824 13.278824 13.278824 13.278824 13.278824 13.278824 13.278824 13.201569 13.201569 13.201569 13.201569 13.124314 13.124314 13.047059 13.047059 12.969805 12.969805 12.8925495 12.8925495 12.8925495 12.815294 12.815294 12.815294 12.73804 12.73804 12.73804 12.660785 12.660785 12.660785 12.660785 12.660785 12.583529 12.583529 12.583529 12.583529 12.583529 12.660785 12.660785 12.660785 12.660785 12.660785 12.73804 15.441962 15.364707 15.364707 15.287453 15.287453 15.210197 15.210197 15.132942 15.055687 14.978432 14.823922 14.669412 14.437648 14.283137 14.205883 14.128628 14.051373 13.974118 13.896863 13.819609 13.742353 13.665098 13.587844 13.510589
15.596472 15.596472 15.596472 15.596472 15.596472 15.596472 15.596472 15.5192175 15.5192175 15.5192175 15.5192175 15.5192175 15.5192175 15.441962 15.441962 15.441962 15.441962 15.441962 15.441962 15.441962 15.441962 15.441962 15.441962 15.441962 15.441962 15.441962 15.441962 15.441962 15.441962 15.441962 15.441962 15.441962 15.5192175 15.5192175 15.5192175 15.5192175 15.5192175 15.5192175 15.596472 15.596472 15.596472 15.596472 15.596472 15.596472 15.596472 15.596472 15.596472 15.596472 15.673727 15.673727 15.673727 15.673727 15.750982 15.750982 15.828237 15.828237 15.828237 15.905492 15.982746 15.982746 15.982746 16.060001 16.060001 16.137257 16.137257 16.137257 16.137257 16.214512 16.214512 16.214512 16.214512 16.214512 16.214512 16.214512 16.214512 16.214512 16.214512 16.214512 16.214512 16.214512 16.214512 16.137257 16.137257 16.137257 16.060001 16.060001 16.060001 16.060001 15.982746 15.982746 15.982746 15.982746 15.982746 15.982746 15.982746 15.982746 15.982746 15.982746 15.982746 15.982746 15.982746 15.982746 15.982746 15.982746 15.982746 15.982746 15.905492 15.905492 15.905492 15.905492 15.905492 15.828237 15.828237 15.828237 15.828237 15.828237 15.905492 15.905492 15.905492 15.905492 15.982746 15.982746 15.982746 16.060001 16.060001 16.060001 16.060001 16.137257 15.364707 15.210197 15.132942 15.132942 15.132942 15.055687 15.055687 15.055687 15.055687 15.055687 15.055687 15.055687 15.055687 15.055687 15.055687 15.055687 15.055687 15.055687 15.055687 15.055687 15.055687 15.055687 15.132942 15.132942 15.132942 15.132942 15.132942 15.132942 15.132942 15.132942 15.132942 15.132942 15.132942 15.132942 15.132942 15.132942 15.055687 15.055687 15.055687 15.055687 15.055687 15.055687 15.055687 15.055687 15.055687 15.055687 15.055687 15.132942 15.132942 15.132942 15.210197 15.210197 15.210197 15.287453 15.287453 15.364707 15.364707 15.441962 15.441962 15.5192175 15.5192175 15.5192175 15.596472 15.596472 15.596472 15.596472 15.596472 15.596472 15.673727 16.060001 16.214512 16.291765 16.291765 16.291765 16.291765 16.214512 14.128628 14.051373 14.051373 14.051373 14.051373 13.974118 13.974118 13.974118 13.974118 13.974118 13.974118 13.896863 13.819609 13.819609 13.742353 13.665098 13.587844 13.510589 13.433333 13.356079 13.278824 13.201569 13.201569 13.124314 13.124314 13.047059 13.047059 13.047059 13.047059 13.047059 13.124314 13.201569 13.201569 13.278824 13.278824 13.278824 13.278824 13.278824 13.278824 13.278824 13.278824 13.356079 13.278824 13.278824 13.278824 13.278824 13.278824 13.278824 13.278824 13.201569 13.201569 13.201569 13.124314 13.124314 13.124314 13.047059 13.047059 12.969805 12.969805 12.8925495 12.8925495 12.815294 12.815294 12.815294 12.73804 12.73804 12.73804 12.73804 12.660785 12.660785 12.660785 12.660785 12.660785 12.660785 12.660785 12.660785 12.660785 12.660785 12.660785 12.660785 12.73804 12.73804 12.73804 15.441962 15.441962 15.364707 15.364707 15.287453 15.287453 15.210197 15.132942 15.055687 14.978432 14.746667 14.592157 14.437648 14.283137 14.205883 14.128628 14.051373 13.974118 13.896863 13.819609 13.742353 13.665098 13.587844 13.510589
15.596472 15.596472 15.596472 15.596472 15.596472 15.596472 15.596472 15.596472 15.596472 15.596472 15.5192175 15.5192175 15.5192175 15.5192175 15.5192175 15.5192175 15.5192175 15.5192175 15.5192175 15.441962 15.441962 15.441962 15.441962 15.441962 15.441962 15.441962 15.441962 15.441962 15.5192175 15.5192175 15.5192175 15.5192175 15.5192175 15.5192175 15.5192175 15.596472 15.596472 15.596472 15.596472 15.596472 15.596472 15.596472 15.596472 15.596472 15.596472 15.673727 15.673727 15.673727 15.673727 15.673727 15.750982 15.750982 15.750982 15.828237 15.828237 15.828237 15.905492 15.905492 15.982746 15.982746 16.060001 16.060001 16.137257 16.137257 16.137257 16.214512 16.214512 16.214512 16.214512 16.214512 16.214512 16.291765 16.291765 16.291765 16.291765 16.291765 16.291765 16.291765 16.291765 16.214512 16.214512 16.214512 16.214512 16.137257 16.137257 16.137257 16.060001 16.060001 16.060001 16.060001 16.060001 16.060001 16.060001 16.060001 16.060001 16.060001 16.060001 16.060001 16.060001 16.060001 16.060001 16.060001 16.060001 16.060001 15.982746 15.982746 15.982746 15.982746 15.982746 15.905492 15.905492 15.905492 15.905492 15.905492 15.905492 15.905492 15.905492 15.905492 15.982746 15.982746 15.982746 15.982746 16.060001 16.060001 16.060001 16.137257 16.137257 16.137257 15.287453 15.210197 15.210197 15.210197 15.132942 15.132942 15.132942 15.132942 15.055687 15.055687 15.055687 15.055687 15.055687 15.055687 15.055687 15.055687 15.055687 15.055687 15.055687 15.132942 15.132942 15.132942 15.132942 15.132942 15.132942 15.210197 15.210197 15.210197 15.210197 15.210197 15.210197 15.210197 15.132942 15.132942 15.132942 15.132942 15.132942 15.132942 15.055687 15.055687 15.055687 15.055687 15.055687 15.055687 15.055687 15.055687 15.132942 15.132942 15.132942 15.210197 15.210197 15.287453 15.287453 15.287453 15.364707 15.364707 15.441962 15.441962 15.5192175 15.5192175 15.5192175 15.596472 15.596472 15.596472 15.596472 15.596472 15.673727 15.673727 15.673727 15.673727 16.214512 16.291765 16.291765 16.291765 16.291765 14.205883 14.128628 14.051373 14.051373 14.051373 14.051373 14.051373 14.051373 14.051373 13.974118 13.974118 13.974118 13.896863 13.819609 13.819609 13.742353 13.665098 13.510589 13.510589 13.433333 13.356079 13.278824 13.201569 13.201569 13.124314 13.124314 13.124314 13.047059 13.047059 13.047059 13.124314 13.201569 13.201569 13.278824 13.278824 13.278824 13.356079 13.356079 13.356079 13.356079 13.356079 13.356079 13.356079 13.356079 13.356079 13.356079 13.356079 13.278824 13.278824 13.278824 13.278824 13.201569 13.201569 13.201569 13.124314 13.124314 13.047059 13.047059 12.969805 12.969805 12.8925495 12.8925495 12.8925495 12.815294 12.815294 12.815294 12.73804 12.73804 12.73804 12.73804 12.660785 12.660785 12.660785 12.660785 12.660785 12.660785 12.660785 12.660785 12.660785 12.660785 12.73804 12.73804 12.73804 12.815294 15.441962 15.441962 15.364707 15.364707 15.287453 15.287453 15.210197 15.132942 15.055687 14.823922 14.669412 14.514902 14.360393 14.283137 14.205883 14.128628 14.051373 13.974118 13.896863 13.819609 13.665098 13.587844 13.587844 13.510589
15.673727 15.673727 15.673727 15.673727 15.673727 15.673727 15.673727 15.596472 15.596472 15.596472 15.596472 15.596472 15.596472 15.596472 15.596472 15.5192175 15.5192175 15.5192175 15.5192175 15.5192175 15.5192175 15.5192175 15.5192175 15.5192175 15.5192175 15.5192175 15.5192175 15.5192175 15.5192175 15.5192175 15.5192175 15.5192175 15.596472 15.596472 15.596472 15.596472 15.596472 15.596472 15.596472 15.673727 15.673727 15.673727 15.673727 15.673727 15.673727 15.673727 15.673727 15.673727 15.750982 15.750982 15.750982 15.750982 15.828237 15.828237 15.828237 15.905492 15.905492 15.982746 15.982746 16.060001 16.060001 16.137257 16.137257 16.137257 16.214512 16.214512 16.214512 16.214512 16.291765 16.291765 16.291765 16.291765 16.291765 16.291765 16.291765 16.291765 16.291765 16.291765 16.291765 16.291765 16.291765 16.291765 16.214512 16.214512 16.214512 16.137257 16.137257 16.137257 16.060001 16.060001 16.060001 16.060001 16.060001 16.060001 16.060001 16.060001 16.060001 16.060001 16.060001 16.060001 16.060001 16.060001 16.060001 16.060001 16.060001 16.060001 15.982746 15.982746 15.982746 15.982746 15.982746 15.982746 15.905492 15.905492 15.905492 15.905492 15.982746 15.982746 15.982746 15.982746 16.060001 16.060001 16.060001 16.060001 16.137257 16.137257 16.137257 16.137257 15.364707 15.287453 15.210197 15.210197 15.210197 15.132942 15.132942 15.132942 15.132942 15.132942 15.132942 15.132942 15.132942 15.132942 15.132942 15.132942 15.132942 15.132942 15.132942 15.132942 15.132942 15.132942 15.210197 15.210197 15.210197 15.210197 15.210197 15.210197 15.210197 15.210197 15.210197 15.210197 15.210197 15.210197 15.210197 15.132942 15.132942 15.132942 15.132942 15.132942 15.132942 15.055687 15.055687 15.132942 15.132942 15.132942 15.132942 15.210197 15.210197 15.210197 15.287453 15.287453 15.364707 15.364707 15.364707 15.441962 15.441962 15.5192175 15.5192175 15.596472 15.596472 15.596472 15.596472 15.673727 15.673727 15.673727 15.673727 15.673727 15.673727 15.673727 16.214512 16.291765 16.291765 16.291765 16.291765 14.205883 14.128628 14.128628 14.051373 14.051373 14.051373 14.051373 14.051373 14.051373 14.051373 13.974118 13.974118 13.896863 13.819609 13.819609 13.742353 13.665098 13.587844 13.510589 13.433333 13.356079 13.278824 13.278824 13.201569 13.124314 13.124314 13.124314 13.124314 13.124314 13.124314 13.124314 13.201569 13.278824 13.278824 13.278824 13.356079 13.356079 13.356079 13.356079 13.356079 13.356079 13.356079 13.356079 13.356079 13.356079 13.356079 13.356079 13.356079 13.278824 13.278824 13.278824 13.278824 13.201569 13.201569 13.124314 13.124314 13.124314 13.047059 12.969805 12.969805 12.969805 12.8925495 12.8925495 12.8925495 12.815294 12.815294 12.815294 12.815294 12.73804 12.73804 12.73804 12.73804 12.660785 12.660785 12.660785 12.660785 12.660785 12.660785 12.73804 12.73804 12.73804 12.73804 12.815294 12.815294 15.5192175 15.441962 15.441962 15.364707 15.287453 15.287453 15.210197 15.132942 14.978432 14.746667 14.592157 14.437648 14.360393 14.283137 14.205883 14.051373 14.051373 13.974118 13.819609 13.742353 13.665098 13.587844 13.510589 13.433333
15.673727 15.673727 15.673727 15.673727 15.673727 15.673727 15.673727 15.673727 15.673727 15.673727 15.596472 15.596472 15.596472 15.596472 15.596472 15.596472 15.596472 15.596472 15.596472 15.596472 15.5192175 15.5192175 15.5192175 15.5192175 15.5192175 15.5192175 15.5192175 15.5192175 15.596472 15.596472 15.596472 15.596472 15.596472 15.596472 15.596472 15.596472 15.673727 15.673727 15.673727 15.673727 15.673727 15.673727 15.673727 15.673727 15.673727 15.750982 15.750982 15.750982 15.750982 15.750982 15.750982 15.828237 15.828237 15.828237 15.905492 15.905492 15.982746 15.982746 16.060001 16.060001 16.137257 16.137257 16.137257 16.214512 16.214512 16.214512 16.291765 16.291765 16.291765 16.291765 16.36902 16.36902 16.36902 16.36902 16.36902 16.36902 16.36902 16.36902 16.36902 16.36902 16.291765 16.291765 16.291765 16.214512 16.214512 16.214512 16.137257 16.137257 16.137257 16.137257 16.137257 16.137257 16.137257 16.137257 16.137257 16.137257 16.137257 16.137257 16.137257 16.137257 16.137257 16.137257 16.137257 16.137257 16.060001 16.060001 16.060001 16.060001 16.060001 15.982746 15.982746 15.982746 15.982746 15.982746 15.982746 15.982746 15.982746 15.982746 15.982746 16.060001 16.060001 16.060001 16.060001 16.137257 16.137257 16.137257 16.214512 16.214512 15.364707 15.287453 15.287453 15.210197 15.210197 15.210197 15.210197 15.210197 15.132942 15.132942 15.132942 15.132942 15.132942 15.132942 15.132942 15.132942 15.132942 15.132942 15.132942 15.210197 15.210197 15.210197 15.210197 15.210197 15.210197 15.210197 15.287453 15.287453 15.287453 15.287453 15.287453 15.210197 15.210197 15.210197 15.210197 15.210197 15.210197 15.132942 15.132942 15.132942 15.132942 15.132942 15.132942 15.132942 15.132942 15.132942 15.210197 15.210197 15.210197 15.287453 15.287453 15.364707 15.364707 15.364707 15.441962 15.441962 15.5192175 15.5192175 15.596472 15.596472 15.596472 15.673727 15.673727 15.673727 15.673727 15.673727 15.673727 15.750982 15.750982 15.750982 15.750982 16.291765 16.36902 16.36902 14.283137 14.205883 14.128628 14.128628 14.128628 14.051373 14.051373 14.051373 14.051373 14.051373 14.051373 13.974118 13.974118 13.896863 13.819609 13.819609 13.742353 13.665098 13.587844 13.510589 13.433333 13.356079 13.278824 13.278824 13.201569 13.201569 13.124314 13.124314 13.124314 13.124314 13.124314 13.124314 13.201569 13.278824 13.356079 13.356079 13.356079 13.433333 13.433333 13.433333 13.433333 13.433333 13.433333 13.433333 13.433333 13.433333 13.433333 13.356079 13.356079 13.356079 13.356079 13.278824 13.278824 13.278824 13.201569 13.201569 13.124314 13.124314 13.047059 13.047059 12.969805 12.969805 12.8925495 12.8925495 12.8925495 12.8925495 12.815294 12.815294 12.815294 12.73804 12.73804 12.73804 12.73804 12.73804 12.73804 12.73804 12.73804 12.73804 12.73804 12.73804 12.73804 12.73804 12.815294 12.815294 12.8925495 15.5192175 15.441962 15.441962 15.364707 15.364707 15.287453 15.210197 15.055687 14.901176 14.669412 14.514902 14.437648 14.283137 14.283137 14.205883 14.051373 13.974118 13.896863 13.819609 13.742353 13.665098 13.587844 13.510589 13.433333
15.750982 15.750982 15.750982 15.750982 15.750982 15.750982 15.750982 15.750982 15.673727 15.673727 15.673727 15.673727 15.673727 15.673727 15.596472 15.596472 15.596472 15.596472 15.596472 15.596472 15.596472 15.596472 15.596472 15.596472 15.596472 15.596472 15.596472 15.596472 15.596472 15.596472 15.596472 15.596472 15.596472 15.673727 15.673727 15.673727 15.673727 15.673727 15.673727 15.750982 15.750982 15.750982 15.750982 15.750982 15.750982 15.750982 15.750982 15.750982 15.750982 15.828237 15.828237 15.828237 15.828237 15.905492 15.905492 15.982746 15.982746 15.982746 16.060001 16.060001 16.137257 16.137257 16.214512 16.214512 16.214512 16.291765 16.291765 16.291765 16.36902 16.36902 16.36902 16.36902 16.36902 16.36902 16.36902 16.36902 16.36902 16.36902 16.36902 16.36902 16.36902 16.36902 16.291765 16.291765 16.291765 16.214512 16.214512 16.214512 16.137257 16.137257 16.137257 16.137257 16.137257 16.137257 16.137257 16.137257 16.137257 16.137257 16.137257 16.214512 16.214512 16.137257 16.137257 16.137257 16.137257 16.137257 16.137257 16.060001 16.060001 16.060001 16.060001 16.060001 15.982746 15.982746 15.982746 15.982746 15.982746 16.060001 16.060001 16.060001 16.060001 16.137257 16.137257 16.137257 16.214512 16.214512 16.214512 16.214512 15.441962 15.364707 15.287453 15.287453 15.287453 15.210197 15.210197 15.210197 15.210197 15.210197 15.210197 15.210197 15.210197 15.210197 15.210197 15.210197 15.210197 15.210197 15.210197 15.210197 15.210197 15.210197 15.287453 15.287453 15.287453 15.287453 15.287453 15.287453 15.287453 15.287453 15.287453 15.287453 15.287453 15.287453 15.210197 15.210197 15.210197 15.210197 15.210197 15.210197 15.132942 15.132942 15.132942 15.132942 15.210197 15.210197 15.210197 15.210197 15.287453 15.287453 15.364707 15.364707 15.441962 15.441962 15.441962 15.5192175 15.5192175 15.596472 15.596472 15.596472 15.673727 15.673727 15.673727 15.673727 15.673727 15.750982 15.750982 15.750982 15.750982 15.750982 15.828237 16.36902 16.36902 16.36902 14.205883 14.205883 14.128628 14.128628 14.128628 14.128628 14.128628 14.051373 14.051373 14.051373 14.051373 14.051373 13.974118 13.896863 13.896863 13.819609 13.742353 13.665098 13.587844 13.510589 13.433333 13.356079 13.278824 13.278824 13.201569 13.201569 13.201569 13.124314 13.124314 13.124314 13.124314 13.201569 13.278824 13.278824 13.356079 13.356079 13.433333 13.433333 13.433333 13.433333 13.433333 13.433333 13.433333 13.433333 13.433333 13.433333 13.433333 13.433333 13.356079 13.356079 13.356079 13.356079 13.278824 13.278824 13.201569 13.201569 13.124314 13.124314 13.047059 13.047059 12.969805 12.969805 12.969805 12.8925495 12.8925495 12.8925495 12.8925495 12.815294 12.815294 12.815294 12.815294 12.73804 12.73804 12.73804 12.73804 12.73804 12.73804 12.73804 12.73804 12.73804 12.815294 12.815294 12.815294 12.815294 12.8925495 15.5192175 15.5192175 15.441962 15.364707 15.364707 15.287453 15.132942 14.978432 14.823922 14.592157 14.514902 14.360393 14.283137 14.205883 14.128628 14.051373 13.974118 13.896863 13.819609 13.742353 13.665098 13.587844 13.510589 13.433333
15.750982 15.750982 15.750982 15.750982 15.750982 15.750982 15.750982 15.750982 15.750982 15.750982 15.750982 15.673727 15.673727 15.673727 15.673727 15.673727 15.673727 15.673727 15.673727 15.673727 15.596472 15.596472 15.596472 15.596472 15.596472 15.596472 15.596472 15.596472 15.596472 15.596472 15.673727 15.673727 15.673727 15.673727 15.673727 15.673727 15.750982 15.750982 15.750982 15.750982 15.750982 15.750982 15.750982 15.750982 15.750982 15.750982 15.828237 15.828237 15.828237 15.828237 15.828237 15.828237 15.905492 15.905492 15.905492 15.982746 15.982746 16.060001 16.060001 16.137257 16.137257 16.214512 16.214512 16.291765 16.291765 16.291765 16.36902 16.36902 16.36902 16.36902 16.36902 16.446276 16.446276 16.446276 16.446276 16.446276 16.446276 16.446276 16.446276 16.446276 16.36902 16.36902 16.36902 16.36902 16.291765 16.291765 16.214512 16.214512 16.214512 16.214512 16.214512 16.214512 16.214512 16.214512 16.214512 16.214512 16.214512 16.214512 16.214512 16.214512 16.214512 16.214512 16.214512 16.214512 16.214512 16.137257 16.137257 16.137257 16.137257 16.060001 16.060001 16.060001 16.060001 16.060001 16.060001 16.060001 16.060001 16.060001 16.060001 16.137257 16.137257 16.137257 16.137257 16.214512 16.214512 16.214512 16.214512 16.291765 15.441962 15.364707 15.364707 15.287453 15.287453 15.287453 15.287453 15.210197 15.210197 15.210197 15.210197 15.210197 15.210197 15.210197 15.210197 15.210197 15.210197 15.210197 15.210197 15.210197 15.287453 15.287453 15.287453 15.287453 15.287453 15.364707 15.364707 15.364707 15.364707 15.364707 15.364707 15.287453 15.287453 15.287453 15.287453 15.287453 15.210197 15.210197 15.210197 15.210197 15.210197 15.210197 15.210197 15.210197 15.210197 15.210197 15.210197 15.287453 15.287453 15.364707 15.364707 15.441962 15.441962 15.441962 15.5192175 15.5192175 15.596472 15.596472 15.596472 15.673727 15.673727 15.750982 15.750982 15.750982 15.750982 15.750982 15.750982 15.750982 15.750982 15.750982 15.750982 16.36902 16.36902 16.36902 14.283137 14.205883 14.205883 14.205883 14.128628 14.128628 14.128628 14.128628 14.128628 14.051373 14.051373 14.051373 13.974118 13.974118 13.896863 13.819609 13.742353 13.665098 13.587844 13.510589 13.433333 13.356079 13.356079 13.278824 13.278824 13.201569 13.201569 13.201569 13.201569 13.201569 13.201569 13.201569 13.278824 13.356079 13.356079 13.433333 13.433333 13.510589 13.510589 13.510589 13.510589 13.510589 13.510589 13.510589 13.510589 13.433333 13.433333 13.433333 13.433333 13.433333 13.356079 13.356079 13.278824 13.278824 13.278824 13.201569 13.201569 13.124314 13.124314 13.047059 13.047059 12.969805 12.969805 12.969805 12.8925495 12.8925495 12.8925495 12.8925495 12.815294 12.815294 12.815294 12.815294 12.73804 12.73804 12.73804 12.73804 12.73804 12.73804 12.815294 12.815294 12.815294 12.815294 12.815294 12.8925495 12.969805 15.5192175 15.5192175 15.441962 15.364707 15.364707 15.210197 15.132942 14.901176 14.746667 14.592157 14.437648 14.360393 14.283137 14.205883 14.128628 14.051373 13.974118 13.896863 13.819609 13.742353 13.665098 13.587844 12.583529 12.506275
15.828237 15.828237 15.828237 15.828237 15.828237 15.828237 15.828237 15.828237 15.750982 15.750982 15.750982 15.750982 15.750982 15.750982 15.750982 15.750982 15.673727 15.673727 15.673727 15.673727 15.673727 15.673727 15.673727 15.673727 15.673727 15.673727 15.673727 15.673727 15.673727 15.673727 15.673727 15.673727 15.673727 15.750982 15.750982 15.750982 15.750982 15.750982 15.750982 15.750982 15.828237 15.828237 15.828237 15.828237 15.828237 15.828237 15.828237 15.828237 15.828237 15.828237 15.905492 15.905492 15.905492 15.982746 15.982746 15.982746 16.060001 16.060001 16.137257 16.137257 16.214512 16.214512 16.291765 16.291765 16.291765 16.36902 16.36902 16.36902 16.446276 16.446276 16.446276 16.446276 16.446276 16.446276 16.446276 16.446276 16.446276 16.446276 16.446276 16.446276 16.446276 16.446276 16.36902 16.36902 16.36902 16.36902 16.291765 16.291765 16.291765 16.214512 16.214512 16.214512 16.214512 16.214512 16.214512 16.214512 16.214512 16.214512 16.291765 16.291765 16.291765 16.291765 16.214512 16.214512 16.214512 16.214512 16.214512 16.137257 16.137257 16.137257 16.137257 16.137257 16.060001 16.060001 16.060001 16.060001 16.060001 16.137257 16.137257 16.137257 16.137257 16.214512 16.214512 16.214512 16.214512 16.291765 16.291765 16.291765 15.441962 15.441962 15.364707 15.364707 15.364707 15.287453 15.287453 15.287453 15.287453 15.287453 15.287453 15.287453 15.210197 15.210197 15.287453 15.287453 15.287453 15.287453 15.287453 15.287453 15.287453 15.287453 15.364707 15.364707 15.364707 15.364707 15.364707 15.364707 15.364707 15.364707 15.364707 15.364707 15.364707 15.364707 15.287453 15.287453 15.287453 15.287453 15.287453 15.210197 15.210197 15.210197 15.210197 15.210197 15.210197 15.287453 15.287453 15.287453 15.364707 15.364707 15.441962 15.441962 15.441962 15.5192175 15.5192175 15.596472 15.596472 15.673727 15.673727 15.673727 15.750982 15.750982 15.750982 15.750982 15.750982 15.750982 15.750982 15.750982 15.750982 15.750982 15.750982 15.750982 16.36902 14.360393 14.283137 14.205883 14.205883 14.205883 14.205883 14.128628 14.128628 14.128628 14.128628 14.128628 14.051373 14.051373 13.974118 13.974118 13.896863 13.819609 13.742353 13.665098 13.587844 13.510589 13.510589 13.356079 13.356079 13.278824 13.278824 13.201569 13.201569 13.201569 13.201569 13.201569 13.201569 13.278824 13.356079 13.356079 13.433333 13.433333 13.510589 13.510589 13.510589 13.510589 13.510589 13.510589 13.510589 13.510589 13.510589 13.510589 13.510589 13.433333 13.433333 13.433333 13.433333 13.356079 13.356079 13.278824 13.278824 13.201569 13.201569 13.124314 13.124314 13.047059 13.047059 12.969805 12.969805 12.969805 12.8925495 12.8925495 12.8925495 12.8925495 12.815294 12.815294 12.815294 12.815294 12.815294 12.815294 12.815294 12.815294 12.815294 12.815294 12.815294 12.815294 12.815294 12.8925495 12.8925495 12.8925495 12.969805 15.596472 15.5192175 15.441962 15.441962 15.364707 15.210197 14.978432 14.823922 14.669412 14.514902 14.437648 14.360393 14.283137 14.205883 14.128628 14.051373 13.974118 13.896863 13.819609 13.742353 12.660785 12.583529 12.506275 12.351766
15.828237 15.828237 15.828237 15.828237 15.828237 15.828237 15.828237 15.828237 15.828237 15.828237 15.828237 15.828237 15.750982 15.750982 15.750982 15.750982 15.750982 15.750982 15.750982 15.750982 15.750982 15.673727 15.673727 15.673727 15.673727 15.673727 15.673727 15.673727 15.673727 15.750982 15.750982 15.750982 15.750982 15.750982 15.750982 15.750982 15.750982 15.828237 15.828237 15.828237 15.828237 15.828237 15.828237 15.828237 15.828237 15.828237 15.828237 15.905492 15.905492 15.905492 15.905492 15.905492 15.982746 15.982746 15.982746 16.060001 16.060001 16.137257 16.137257 16.137257 16.214512 16.214512 16.291765 16.36902 16.36902 16.36902 16.36902 16.446276 16.446276 16.446276 16.523531 16.523531 16.523531 16.523531 16.523531 16.523531 16.523531 16.523531 16.523531 16.523531 16.523531 16.446276 16.446276 16.446276 16.36902 16.36902 16.36902 16.291765 16.291765 16.291765 16.291765 16.291765 16.291765 16.291765 16.291765 16.291765 16.291765 16.291765 16.291765 16.291765 16.291765 16.291765 16.291765 16.291765 16.291765 16.214512 16.214512 16.214512 16.214512 16.137257 16.137257 16.137257 16.137257 16.137257 16.137257 16.137257 16.137257 16.137257 16.137257 16.137257 16.214512 16.214512 16.214512 16.214512 16.291765 16.291765 16.291765 15.596472 15.5192175 15.441962 15.441962 15.364707 15.364707 15.364707 15.364707 15.287453 15.287453 15.287453 15.287453 15.287453 15.287453 15.287453 15.287453 15.287453 15.287453 15.287453 15.287453 15.364707 15.364707 15.364707 15.364707 15.364707 15.364707 15.441962 15.441962 15.441962 15.441962 15.441962 15.441962 15.364707 15.364707 15.364707 15.364707 15.364707 15.287453 15.287453 15.287453 15.287453 15.287453 15.287453 15.287453 15.287453 15.287453 15.287453 15.287453 15.364707 15.364707 15.441962 15.441962 15.5192175 15.5192175 15.5192175 15.596472 15.596472 15.673727 15.673727 15.750982 15.750982 15.750982 15.750982 15.828237 15.828237 15.828237 15.828237 15.828237 15.828237 15.828237 15.750982 15.828237 15.750982 15.673727 14.283137 14.283137 14.283137 14.205883 14.205883 14.205883 14.205883 14.128628 14.128628 14.128628 14.128628 14.128628 14.051373 13.974118 13.974118 13.896863 13.819609 13.742353 13.665098 13.587844 13.510589 13.510589 13.433333 13.356079 13.278824 13.278824 13.278824 13.201569 13.201569 13.201569 13.201569 13.278824 13.278824 13.356079 13.433333 13.433333 13.510589 13.510589 13.510589 13.510589 13.510589 13.510589 13.510589 13.510589 13.510589 13.510589 13.510589 13.510589 13.510589 13.433333 13.433333 13.433333 13.356079 13.356079 13.278824 13.278824 13.278824 13.201569 13.201569 13.124314 13.124314 13.047059 13.047059 12.969805 12.969805 12.969805 12.8925495 12.8925495 12.8925495 12.8925495 12.8925495 12.815294 12.815294 12.815294 12.815294 12.815294 12.815294 12.815294 12.815294 12.815294 12.8925495 12.8925495 12.8925495 12.8925495 12.8925495 15.596472 15.596472 15.5192175 15.441962 15.441962 15.287453 15.132942 14.901176 14.746667 14.669412 14.514902 14.437648 14.360393 14.283137 14.205883 14.128628 14.051373 13.974118 13.896863 13.819609 12.660785 12.583529 12.506275 12.42902 12.351766
15.905492 15.905492 15.905492 15.905492 15.905492 15.905492 15.905492 15.905492 15.828237 15.828237 15.828237 15.828237 15.828237 15.828237 15.828237 15.828237 15.828237 15.750982 15.750982 15.750982 15.750982 15.750982 15.750982 15.750982 15.750982 15.750982 15.750982 15.750982 15.750982 15.750982 15.750982 15.750982 15.750982 15.828237 15.828237 15.828237 15.828237 15.828237 15.828237 15.828237 15.828237 15.905492 15.905492 15.905492 15.905492 15.905492 15.905492 15.905492 15.905492 15.905492 15.982746 15.982746 15.982746 15.982746 16.060001 16.060001 16.060001 16.137257 16.137257 16.214512 16.214512 16.291765 16.36902 16.36902 16.36902 16.446276 16.446276 16.446276 16.523531 16.523531 16.523531 16.523531 16.523531 16.523531 16.523531 16.523531 16.523531 16.523531 16.523531 16.523531 16.523531 16.523531 16.523531 16.446276 16.446276 16.36902 16.36902 16.36902 16.36902 16.36902 16.291765 16.291765 16.291765 16.291765 16.291765 16.36902 16.36902 16.36902 16.36902 16.36902 16.36902 16.36902 16.36902 16.36902 16.291765 16.291765 16.291765 16.214512 16.214512 16.214512 16.214512 16.214512 16.214512 16.137257 16.137257 16.137257 16.137257 16.214512 16.214512 16.214512 16.214512 16.214512 16.291765 16.291765 16.291765 16.291765 16.36902 15.596472 15.5192175 15.441962 15.441962 15.441962 15.441962 15.364707 15.364707 15.364707 15.364707 15.364707 15.364707 15.364707 15.364707 15.364707 15.364707 15.364707 15.364707 15.364707 15.364707 15.364707 15.364707 15.364707 15.441962 15.441962 15.441962 15.441962 15.441962 15.441962 15.441962 15.441962 15.441962 15.441962 15.441962 15.441962 15.364707 15.364707 15.364707 15.364707 15.287453 15.287453 15.287453 15.287453 15.287453 15.287453 15.287453 15.364707 15.364707 15.364707 15.441962 15.441962 15.5192175 15.5192175 15.596472 15.596472 15.596472 15.673727 15.673727 15.750982 15.750982 15.750982 15.828237 15.828237 15.828237 15.828237 15.828237 15.828237 15.828237 15.828237 15.828237 15.828237 15.750982 15.673727 14.437648 14.360393 14.283137 14.283137 14.283137 14.205883 14.205883 14.205883 14.205883 14.205883 14.205883 14.128628 14.128628 14.051373 14.051373 13.974118 13.896863 13.819609 13.742353 13.665098 13.587844 13.587844 13.510589 13.433333 13.356079 13.278824 13.278824 13.278824 13.278824 13.278824 13.278824 13.278824 13.278824 13.278824 13.433333 13.433333 13.510589 13.510589 13.587844 13.587844 13.587844 13.587844 13.587844 13.587844 13.587844 13.587844 13.587844 13.510589 13.510589 13.510589 13.510589 13.510589 13.433333 13.433333 13.356079 13.356079 13.278824 13.278824 13.201569 13.201569 13.124314 13.124314 13.047059 13.047059 13.047059 12.969805 12.969805 12.969805 12.8925495 12.8925495 12.8925495 12.8925495 12.8925495 12.815294 12.815294 12.815294 12.815294 12.815294 12.815294 12.8925495 12.8925495 12.8925495 12.8925495 12.8925495 12.969805 12.969805 15.673727 15.596472 15.5192175 15.441962 15.364707 15.210197 15.055687 14.901176 14.746667 14.592157 14.514902 14.437648 14.360393 14.283137 14.205883 14.128628 14.051373 13.974118 13.896863 12.660785 12.660785 12.583529 12.42902 12.351766 12.27451
15.905492 15.905492 15.905492 15.905492 15.905492 15.905492 15.905492 15.905492 15.905492 15.905492 15.905492 15.905492 15.828237 15.828237 15.828237 15.828237 15.828237 15.828237 15.828237 15.828237 15.828237 15.750982 15.750982 15.750982 15.750982 15.750982 15.750982 15.750982 15.750982 15.750982 15.828237 15.828237 15.828237 15.828237 15.828237 15.828237 15.828237 15.828237 15.905492 15.905492 15.905492 15.905492 15.905492 15.905492 15.905492 15.905492 15.982746 15.982746 15.982746 15.982746 15.982746 15.982746 15.982746 16.060001 16.060001 16.060001 16.137257 16.137257 16.214512 16.214512 16.291765 16.291765 16.36902 16.36902 16.446276 16.446276 16.523531 16.523531 16.523531 16.523531 16.523531 16.600786 16.600786 16.600786 16.600786 16.600786 16.600786 16.600786 16.600786 16.600786 16.600786 16.523531 16.523531 16.523531 16.523531 16.446276 16.446276 16.36902 16.36902 16.36902 16.36902 16.36902 16.36902 16.36902 16.36902 16.36902 16.36902 16.36902 16.36902 16.36902 16.36902 16.36902 16.36902 16.36902 16.36902 16.36902 16.291765 16.291765 16.291765 16.291765 16.214512 16.214512 16.214512 16.214512 16.214512 16.214512 16.214512 16.214512 16.214512 16.214512 16.291765 16.291765 16.291765 16.291765 16.36902 16.36902 16.36902 15.673727 15.596472 15.5192175 15.5192175 15.441962 15.441962 15.441962 15.441962 15.441962 15.364707 15.364707 15.364707 15.364707 15.364707 15.364707 15.364707 15.364707 15.364707 15.364707 15.364707 15.441962 15.441962 15.441962 15.441962 15.441962 15.441962 15.441962 15.5192175 15.5192175 15.5192175 15.5192175 15.441962 15.441962 15.441962 15.441962 15.441962 15.441962 15.364707 15.364707 15.364707 15.364707 15.364707 15.364707 15.364707 15.364707 15.364707 15.364707 15.364707 15.441962 15.441962 15.5192175 15.5192175 15.596472 15.596472 15.596472 15.673727 15.673727 15.750982 15.750982 15.750982 15.828237 15.828237 15.828237 15.828237 15.828237 15.828237 15.905492 15.828237 15.828237 15.828237 15.828237 15.750982 15.673727 14.437648 14.360393 14.283137 14.283137 14.283137 14.283137 14.283137 14.205883 14.205883 14.205883 14.205883 14.128628 14.128628 14.051373 14.051373 13.974118 13.896863 13.819609 13.742353 13.665098 13.665098 13.587844 13.510589 13.433333 13.356079 13.356079 13.278824 13.278824 13.278824 13.278824 13.278824 13.278824 13.278824 13.356079 13.433333 13.510589 13.510589 13.587844 13.587844 13.587844 13.587844 13.587844 13.587844 13.587844 13.587844 13.587844 13.587844 13.587844 13.587844 13.510589 13.510589 13.510589 13.433333 13.433333 13.356079 13.356079 13.278824 13.278824 13.278824 13.201569 13.124314 13.124314 13.124314 13.047059 13.047059 12.969805 12.969805 12.969805 12.969805 12.8925495 12.8925495 12.8925495 12.8925495 12.8925495 12.815294 12.815294 12.815294 12.815294 12.8925495 12.8925495 12.8925495 12.8925495 12.969805 12.969805 12.969805 12.969805 15.673727 15.596472 15.5192175 15.441962 15.364707 15.132942 14.978432 14.823922 14.669412 14.592157 14.514902 14.437648 14.360393 14.283137 14.205883 14.128628 14.051373 13.896863 12.73804 12.660785 12.583529 12.506275 12.42902 12.351766 12.27451
15.982746 15.982746 15.982746 15.982746 15.982746 15.982746 15.982746 15.982746 15.982746 15.905492 15.905492 15.905492 15.905492 15.905492 15.905492 15.905492 15.905492 15.828237 15.828237 15.828237 15.828237 15.828237 15.828237 15.828237 15.828237 15.828237 15.828237 15.828237 15.828237 15.828237 15.828237 15.828237 15.828237 15.828237 15.905492 15.905492 15.905492 15.905492 15.905492 15.905492 15.905492 15.982746 15.982746 15.982746 15.982746 15.982746 15.982746 15.982746 15.982746 15.982746 15.982746 16.060001 16.060001 16.060001 16.060001 16.137257 16.137257 16.214512 16.214512 16.291765 16.291765 16.36902 16.36902 16.446276 16.446276 16.523531 16.523531 16.523531 16.523531 16.600786 16.600786 16.600786 16.600786 16.600786 16.600786 16.600786 16.678041 16.600786 16.600786 16.600786 16.600786 16.600786 16.600786 16.523531 16.523531 16.523531 16.446276 16.446276 16.446276 16.36902 16.36902 16.36902 16.36902 16.36902 16.36902 16.36902 16.446276 16.446276 16.446276 16.446276 16.446276 16.446276 16.446276 16.36902 16.36902 16.36902 16.36902 16.36902 16.291765 16.291765 16.291765 16.291765 16.291765 16.214512 16.214512 16.214512 16.214512 16.214512 16.291765 16.291765 16.291765 16.291765 16.36902 16.36902 16.36902 16.36902 16.36902 15.673727 15.596472 15.596472 15.5192175 15.5192175 15.441962 15.441962 15.441962 15.441962 15.441962 15.441962 15.441962 15.441962 15.441962 15.441962 15.441962 15.441962 15.441962 15.441962 15.441962 15.441962 15.441962 15.441962 15.5192175 15.5192175 15.5192175 15.5192175 15.5192175 15.5192175 15.5192175 15.5192175 15.5192175 15.5192175 15.5192175 15.441962 15.441962 15.441962 15.441962 15.441962 15.364707 15.364707 15.364707 15.364707 15.364707 15.364707 15.364707 15.441962 15.441962 15.441962 15.5192175 15.5192175 15.596472 15.596472 15.673727 15.673727 15.673727 15.750982 15.750982 15.828237 15.828237 15.828237 15.828237 15.905492 15.905492 15.905492 15.905492 15.905492 15.905492 15.905492 15.828237 15.828237 15.750982 14.514902 14.437648 14.360393 14.360393 14.360393 14.283137 14.283137 14.283137 14.283137 14.205883 14.205883 14.205883 14.205883 14.128628 14.128628 14.051373 13.974118 13.896863 13.819609 13.742353 13.665098 13.665098 13.587844 13.510589 13.433333 13.356079 13.356079 13.356079 13.278824 13.278824 13.278824 13.278824 13.278824 13.278824 13.356079 13.510589 13.510589 13.587844 13.587844 13.587844 13.665098 13.665098 13.665098 13.665098 13.665098 13.665098 13.587844 13.587844 13.587844 13.587844 13.587844 13.510589 13.510589 13.510589 13.433333 13.433333 13.356079 13.356079 13.278824 13.278824 13.201569 13.201569 13.124314 13.124314 13.124314 13.047059 13.047059 12.969805 12.969805 12.969805 12.969805 12.8925495 12.8925495 12.8925495 12.8925495 12.8925495 12.8925495 12.8925495 12.8925495 12.8925495 12.8925495 12.8925495 12.969805 12.969805 12.969805 12.969805 13.047059 15.673727 15.596472 15.5192175 15.441962 15.210197 15.055687 14.901176 14.746667 14.669412 14.592157 14.514902 14.437648 14.283137 14.205883 14.205883 14.051373 13.974118 12.73804 12.660785 12.660785 12.583529 12.42902 12.351766 12.27451 12.197255
15.982746 15.982746 15.982746 15.982746 15.982746 15.982746 15.982746 15.982746 15.982746 15.982746 15.982746 15.982746 15.982746 15.982746 15.905492 15.905492 15.905492 15.905492 15.905492 15.905492 15.905492 15.905492 15.828237 15.828237 15.828237 15.828237 15.828237 15.828237 15.828237 15.828237 15.905492 15.905492 15.905492 15.905492 15.905492 15.905492 15.905492 15.982746 15.982746 15.982746 15.982746 15.982746 15.982746 15.982746 15.982746 15.982746 15.982746 16.060001 16.060001 16.060001 16.060001 16.060001 16.060001 16.137257 16.137257 16.137257 16.214512 16.214512 16.291765 16.291765 16.36902 16.36902 16.446276 16.446276 16.523531 16.523531 16.523531 16.600786 16.600786 16.600786 16.600786 16.678041 16.678041 16.678041 16.678041 16.678041 16.678041 16.678041 16.678041 16.678041 16.678041 16.678041 16.600786 16.600786 16.600786 16.523531 16.523531 16.523531 16.446276 16.446276 16.446276 16.446276 16.446276 16.446276 16.446276 16.446276 16.446276 16.446276 16.446276 16.446276 16.446276 16.446276 16.446276 16.446276 16.446276 16.446276 16.36902 16.36902 16.36902 16.36902 16.36902 16.291765 16.291765 16.291765 16.291765 16.291765 16.291765 16.291765 16.291765 16.291765 16.36902 16.36902 16.36902 16.36902 16.36902 16.36902 16.446276 15.750982 15.596472 15.596472 15.596472 15.5192175 15.5192175 15.5192175 15.5192175 15.441962 15.441962 15.441962 15.441962 15.441962 15.441962 15.441962 15.441962 15.441962 15.441962 15.441962 15.441962 15.5192175 15.5192175 15.5192175 15.5192175 15.5192175 15.5192175 15.596472 15.596472 15.596472 15.596472 15.596472 15.5192175 15.5192175 15.5192175 15.5192175 15.5192175 15.441962 15.441962 15.441962 15.441962 15.441962 15.441962 15.364707 15.364707 15.441962 15.441962 15.441962 15.441962 15.5192175 15.5192175 15.596472 15.596472 15.673727 15.673727 15.750982 15.750982 15.750982 15.828237 15.828237 15.828237 15.905492 15.905492 15.905492 15.905492 15.905492 15.905492 15.905492 15.905492 15.905492 15.905492 15.828237 15.750982 14.514902 14.437648 14.360393 14.360393 14.360393 14.360393 14.283137 14.283137 14.283137 14.283137 14.283137 14.205883 14.205883 14.128628 14.128628 14.051373 13.974118 13.896863 13.819609 13.819609 13.742353 13.665098 13.587844 13.510589 13.433333 13.356079 13.356079 13.356079 13.356079 13.278824 13.278824 13.278824 13.278824 13.278824 13.356079 13.510589 13.587844 13.587844 13.665098 13.665098 13.665098 13.665098 13.665098 13.665098 13.665098 13.665098 13.665098 13.665098 13.665098 13.587844 13.587844 13.587844 13.510589 13.510589 13.433333 13.433333 13.356079 13.356079 13.278824 13.278824 13.201569 13.201569 13.201569 13.124314 13.124314 13.047059 13.047059 13.047059 12.969805 12.969805 12.969805 12.969805 12.8925495 12.8925495 12.8925495 12.8925495 12.8925495 12.8925495 12.8925495 12.8925495 12.8925495 12.969805 12.969805 12.969805 13.047059 13.047059 13.047059 15.673727 15.596472 15.5192175 15.364707 15.210197 14.978432 14.901176 14.746667 14.592157 14.514902 14.437648 14.360393 14.283137 14.205883 14.128628 14.051373 12.815294 12.73804 12.660785 12.583529 12.506275 12.42902 12.351766 12.27451 12.197255
15.982746 16.060001 16.060001 16.060001 16.060001 16.060001 16.060001 16.060001 16.060001 16.060001 15.982746 15.982746 15.982746 15.982746 15.982746 15.982746 15.982746 15.982746 15.982746 15.905492 15.905492 15.905492 15.905492 15.905492 15.905492 15.905492 15.905492 15.905492 15.905492 15.905492 15.905492 15.905492 15.905492 15.905492 15.982746 15.982746 15.982746 15.982746 15.982746 15.982746 15.982746 16.060001 16.060001 16.060001 16.060001 16.060001 16.060001 16.060001 16.060001 16.060001 16.060001 16.137257 16.137257 16.137257 16.137257 16.214512 16.214512 16.214512 16.291765 16.36902 16.36902 16.36902 16.446276 16.523531 16.523531 16.523531 16.600786 16.600786 16.600786 16.678041 16.678041 16.678041 16.678041 16.678041 16.755295 16.755295 16.755295 16.755295 16.755295 16.678041 16.678041 16.678041 16.678041 16.678041 16.600786 16.600786 16.523531 16.523531 16.523531 16.523531 16.523531 16.523531 16.446276 16.523531 16.523531 16.523531 16.523531 16.523531 16.523531 16.523531 16.523531 16.523531 16.523531 16.523531 16.523531 16.446276 16.446276 16.446276 16.36902 16.36902 16.36902 16.36902 16.36902 16.36902 16.36902 16.36902 16.36902 16.36902 16.36902 16.36902 16.36902 16.36902 16.36902 16.36902 16.446276 16.446276 16.446276 15.750982 15.673727 15.596472 15.596472 15.596472 15.596472 15.5192175 15.5192175 15.5192175 15.5192175 15.5192175 15.5192175 15.5192175 15.5192175 15.5192175 15.5192175 15.5192175 15.5192175 15.5192175 15.5192175 15.5192175 15.5192175 15.5192175 15.596472 15.596472 15.596472 15.596472 15.596472 15.596472 15.596472 15.596472 15.596472 15.596472 15.596472 15.5192175 15.5192175 15.5192175 15.5192175 15.441962 15.441962 15.441962 15.441962 15.441962 15.441962 15.441962 15.441962 15.441962 15.5192175 15.5192175 15.596472 15.596472 15.673727 15.673727 15.750982 15.750982 15.750982 15.828237 15.828237 15.828237 15.905492 15.905492 15.905492 15.982746 15.982746 15.982746 15.982746 15.982746 15.982746 15.905492 15.905492 15.828237 14.592157 14.514902 14.437648 14.437648 14.360393 14.360393 14.360393 14.360393 14.360393 14.283137 14.283137 14.283137 14.283137 14.205883 14.205883 14.128628 14.051373 13.974118 13.974118 13.819609 13.819609 13.742353 13.665098 13.587844 13.510589 13.433333 13.433333 13.356079 13.356079 13.356079 13.356079 13.356079 13.356079 13.356079 13.356079 13.356079 13.510589 13.587844 13.665098 13.665098 13.665098 13.665098 13.665098 13.665098 13.665098 13.665098 13.665098 13.665098 13.665098 13.665098 13.665098 13.587844 13.587844 13.587844 13.510589 13.510589 13.433333 13.433333 13.356079 13.278824 13.278824 13.278824 13.201569 13.201569 13.124314 13.124314 13.124314 13.047059 13.047059 13.047059 12.969805 12.969805 12.969805 12.969805 12.8925495 12.8925495 12.8925495 12.8925495 12.8925495 12.8925495 12.8925495 12.969805 12.969805 13.047059 13.047059 13.047059 13.047059 13.124314 15.673727 15.596472 15.5192175 15.287453 15.132942 14.978432 14.823922 14.669412 14.592157 14.514902 14.437648 14.360393 14.283137 14.205883 14.128628 12.815294 12.815294 12.73804 12.660785 12.583529 12.506275 12.42902 12.351766 12.27451 12.197255
16.060001 16.060001 16.060001 16.060001 16.060001 16.060001 16.060001 16.060001 16.060001 16.060001 16.060001 16.060001 16.060001 16.060001 16.060001 15.982746 15.982746 15.982746 15.982746 15.982746 15.982746 15.982746 15.982746 15.982746 15.982746 15.905492 15.905492 15.905492 15.905492 15.982746 15.982746 15.982746 15.982746 15.982746 15.982746 15.982746 15.982746 15.982746 16.060001 16.060001 16.060001 16.060001 16.060001 16.060001 16.060001 16.060001 16.060001 16.137257 16.137257 16.137257 16.137257 16.137257 16.137257 16.137257 16.214512 16.214512 16.214512 16.291765 16.291765 16.36902 16.36902 16.446276 16.446276 16.523531 16.523531 16.600786 16.600786 16.678041 16.678041 16.678041 16.678041 16.755295 16.755295 16.755295 16.755295 16.755295 16.755295 16.755295 16.755295 16.755295 16.755295 16.755295 16.678041 16.678041 16.678041 16.600786 16.600786 16.600786 16.523531 16.523531 16.523531 16.523531 16.523531 16.523531 16.523531 16.523531 16.523531 16.523531 16.523531 16.523531 16.523531 16.523531 16.523531 16.523531 16.523531 16.523531 16.523531 16.446276 16.446276 16.446276 16.446276 16.36902 16.36902 16.36902 16.36902 16.36902 16.36902 16.36902 16.36902 16.36902 16.36902 16.446276 16.446276 16.446276 16.446276 16.446276 16.446276 15.750982 15.750982 15.673727 15.596472 15.596472 15.596472 15.596472 15.596472 15.596472 15.5192175 15.5192175 15.5192175 15.5192175 15.5192175 15.5192175 15.5192175 15.5192175 15.5192175 15.5192175 15.5192175 15.596472 15.596472 15.596472 15.596472 15.596472 15.596472 15.673727 15.673727 15.673727 15.673727 15.673727 15.596472 15.596472 15.596472 15.596472 15.596472 15.5192175 15.5192175 15.5192175 15.5192175 15.441962 15.441962 15.441962 15.441962 15.441962 15.5192175 15.5192175 15.5192175 15.596472 15.596472 15.673727 15.673727 15.750982 15.750982 15.828237 15.828237 15.828237 15.905492 15.905492 15.905492 15.982746 15.982746 15.982746 15.982746 15.982746 15.982746 15.982746 15.982746 15.982746 15.905492 15.828237 14.592157 14.514902 14.437648 14.437648 14.437648 14.360393 14.360393 14.360393 14.360393 14.360393 14.360393 14.283137 14.283137 14.205883 14.205883 14.128628 14.051373 13.974118 13.974118 13.896863 13.819609 13.742353 13.665098 13.587844 13.510589 13.433333 13.433333 13.433333 13.356079 13.356079 13.356079 13.356079 13.356079 13.356079 13.356079 13.356079 13.587844 13.665098 13.665098 13.665098 13.742353 13.742353 13.742353 13.742353 13.742353 13.742353 13.742353 13.742353 13.665098 13.665098 13.665098 13.665098 13.587844 13.587844 13.510589 13.510589 13.433333 13.433333 13.356079 13.356079 13.278824 13.278824 13.201569 13.201569 13.201569 13.124314 13.124314 13.047059 13.047059 13.047059 13.047059 12.969805 12.969805 12.969805 12.969805 12.8925495 12.8925495 12.8925495 12.8925495 12.8925495 12.969805 12.969805 13.047059 13.047059 13.047059 13.047059 13.124314 13.124314 13.124314 15.596472 15.441962 15.210197 15.055687 14.901176 14.746667 14.669412 14.592157 14.514902 14.437648 14.360393 14.283137 14.205883 12.8925495 12.815294 12.73804 12.73804 12.660785 12.506275 12.42902 12.351766 12.27451 12.197255 12.120001
16.060001 16.060001 16.137257 16.137257 16.137257 16.137257 16.137257 16.137257 16.137257 16.137257 16.137257 16.060001 16.060001 16.060001 16.060001 16.060001 16.060001 16.060001 16.060001 16.060001 15.982746 15.982746 15.982746 15.982746 15.982746 15.982746 15.982746 15.982746 15.982746 15.982746 15.982746 15.982746 15.982746 15.982746 16.060001 16.060001 16.060001 16.060001 16.060001 16.060001 16.060001 16.060001 16.137257 16.137257 16.137257 16.137257 16.137257 16.137257 16.137257 16.137257 16.137257 16.137257 16.214512 16.214512 16.214512 16.214512 16.291765 16.291765 16.36902 16.36902 16.446276 16.446276 16.523531 16.523531 16.600786 16.600786 16.678041 16.678041 16.678041 16.755295 16.755295 16.755295 16.755295 16.83255 16.83255 16.83255 16.83255 16.83255 16.83255 16.83255 16.755295 16.755295 16.755295 16.755295 16.678041 16.678041 16.678041 16.600786 16.600786 16.600786 16.600786 16.523531 16.523531 16.523531 16.600786 16.600786 16.600786 16.600786 16.600786 16.600786 16.600786 16.600786 16.600786 16.600786 16.600786 16.523531 16.523531 16.523531 16.523531 16.446276 16.446276 16.446276 16.446276 16.446276 16.446276 16.36902 16.36902 16.36902 16.446276 16.446276 16.446276 16.446276 16.446276 16.446276 16.446276 16.446276 15.982746 15.828237 15.750982 15.673727 15.673727 15.673727 15.596472 15.596472 15.596472 15.596472 15.596472 15.596472 15.596472 15.596472 15.596472 15.596472 15.596472 15.596472 15.596472 15.596472 15.596472 15.596472 15.596472 15.596472 15.673727 15.673727 15.673727 15.673727 15.673727 15.673727 15.673727 15.673727 15.673727 15.673727 15.596472 15.596472 15.596472 15.596472 15.596472 15.5192175 15.5192175 15.5192175 15.5192175 15.5192175 15.5192175 15.5192175 15.5192175 15.596472 15.596472 15.596472 15.673727 15.673727 15.750982 15.750982 15.828237 15.828237 15.828237 15.905492 15.905492 15.982746 15.982746 15.982746 15.982746 16.060001 16.060001 16.060001 16.060001 15.982746 15.982746 15.982746 15.905492 14.669412 14.592157 14.514902 14.514902 14.437648 14.437648 14.437648 14.437648 14.360393 14.360393 14.360393 14.360393 14.283137 14.283137 14.283137 14.205883 14.128628 14.128628 14.051373 13.974118 13.896863 13.819609 13.742353 13.665098 13.587844 13.510589 13.510589 13.433333 13.433333 13.433333 13.356079 13.356079 13.356079 13.356079 13.356079 13.433333 13.433333 13.587844 13.665098 13.665098 13.742353 13.742353 13.742353 13.742353 13.742353 13.742353 13.742353 13.742353 13.742353 13.742353 13.665098 13.665098 13.665098 13.665098 13.587844 13.510589 13.510589 13.510589 13.433333 13.356079 13.356079 13.278824 13.278824 13.278824 13.201569 13.201569 13.124314 13.124314 13.124314 13.047059 13.047059 13.047059 13.047059 12.969805 12.969805 12.969805 12.969805 12.969805 12.969805 12.969805 12.969805 12.969805 13.047059 13.047059 13.047059 13.047059 13.124314 13.124314 13.124314 13.201569 13.201569 15.364707 15.132942 14.978432 14.901176 14.746667 14.669412 14.592157 14.514902 14.437648 14.360393 13.047059 12.8925495 12.8925495 12.815294 12.73804 12.73804 12.583529 12.506275 12.42902 12.351766 12.197255 12.120001 12.042746
16.137257 16.137257 16.137257 16.137257 16.137257 16.137257 16.137257 16.137257 16.137257 16.137257 16.137257 16.137257 16.137257 16.137257 16.137257 16.137257 16.060001 16.060001 16.060001 16.060001 16.060001 16.060001 16.060001 16.060001 16.060001 16.060001 15.982746 15.982746 15.982746 15.982746 16.060001 16.060001 16.060001 16.060001 16.060001 16.060001 16.060001 16.060001 16.137257 16.137257 16.137257 16.137257 16.137257 16.137257 16.137257 16.137257 16.137257 16.214512 16.214512 16.214512 16.214512 16.214512 16.214512 16.214512 16.291765 16.291765 16.291765 16.36902 16.36902 16.446276 16.446276 16.523531 16.523531 16.600786 16.600786 16.678041 16.678041 16.755295 16.755295 16.755295 16.755295 16.83255 16.83255 16.83255 16.83255 16.83255 16.83255 16.83255 16.83255 16.83255 16.83255 16.83255 16.83255 16.755295 16.755295 16.755295 16.678041 16.678041 16.678041 16.600786 16.600786 16.600786 16.600786 16.600786 16.600786 16.600786 16.600786 16.600786 16.600786 16.600786 16.600786 16.678041 16.600786 16.600786 16.600786 16.600786 16.600786 16.523531 16.523531 16.523531 16.523531 16.523531 16.446276 16.446276 16.446276 16.446276 16.446276 16.446276 16.446276 16.446276 16.446276 16.523531 16.523531 16.523531 16.523531 16.523531 15.982746 15.828237 15.750982 15.750982 15.750982 15.673727 15.673727 15.673727 15.673727 15.673727 15.596472 15.596472 15.596472 15.596472 15.596472 15.596472 15.596472 15.596472 15.596472 15.596472 15.596472 15.673727 15.673727 15.673727 15.673727 15.673727 15.750982 15.750982 15.750982 15.750982 15.750982 15.750982 15.673727 15.673727 15.673727 15.673727 15.673727 15.596472 15.596472 15.596472 15.596472 15.5192175 15.5192175 15.5192175 15.5192175 15.5192175 15.596472 15.596472 15.596472 15.673727 15.673727 15.750982 15.750982 15.828237 15.828237 15.905492 15.905492 15.905492 15.982746 15.982746 15.982746 16.060001 16.060001 16.060001 16.060001 16.060001 16.060001 16.060001 15.982746 15.982746 15.905492 14.669412 14.592157 14.514902 14.514902 14.514902 14.437648 14.437648 14.437648 14.437648 14.437648 14.360393 14.360393 14.360393 14.283137 14.283137 14.205883 14.205883 14.128628 14.051373 13.974118 13.896863 13.819609 13.742353 13.665098 13.587844 13.510589 13.510589 13.510589 13.433333 13.433333 13.433333 13.433333 13.433333 13.433333 13.433333 13.433333 13.433333 13.665098 13.665098 13.742353 13.742353 13.819609 13.819609 13.819609 13.819609 13.819609 13.819609 13.742353 13.742353 13.742353 13.742353 13.665098 13.665098 13.665098 13.587844 13.587844 13.510589 13.510589 13.433333 13.356079 13.356079 13.356079 13.278824 13.278824 13.201569 13.201569 13.201569 13.124314 13.124314 13.124314 13.047059 13.047059 13.047059 12.969805 12.969805 12.969805 12.969805 12.969805 12.8925495 12.8925495 12.969805 12.969805 13.047059 13.124314 13.124314 13.124314 13.124314 13.124314 13.201569 13.201569 13.201569 15.287453 15.055687 14.978432 14.823922 14.746667 14.669412 14.592157 14.514902 13.124314 13.047059 13.047059 12.8925495 12.8925495 12.815294 12.73804 12.660785 12.583529 12.506275 12.42902 12.27451 12.197255 12.042746 12.042746
16.137257 16.137257 16.214512 16.214512 16.214512 16.214512 16.214512 16.214512 16.214512 16.214512 16.214512 16.137257 16.137257 16.137257 16.137257 16.137257 16.137257 16.137257 16.137257 16.137257 16.137257 16.060001 16.060001 16.060001 16.060001 16.060001 16.060001 16.060001 16.060001 16.060001 16.060001 16.060001 16.060001 16.060001 16.137257 16.137257 16.137257 16.137257 16.137257 16.137257 16.137257 16.137257 16.214512 16.214512 16.214512 16.214512 16.214512 16.214512 16.214512 16.214512 16.214512 16.214512 16.291765 16.291765 16.291765 16.291765 16.36902 16.36902 16.36902 16.446276 16.523531 16.523531 16.600786 16.600786 16.678041 16.678041 16.755295 16.755295 16.755295 16.83255 16.83255 16.83255 16.83255 16.909805 16.909805 16.909805 16.909805 16.909805 16.909805 16.909805 16.909805 16.909805 16.83255 16.83255 16.83255 16.755295 16.755295 16.678041 16.678041 16.678041 16.678041 16.678041 16.678041 16.678041 16.678041 16.678041 16.678041 16.678041 16.678041 16.678041 16.678041 16.678041 16.678041 16.678041 16.678041 16.600786 16.600786 16.600786 16.600786 16.600786 16.523531 16.523531 16.523531 16.523531 16.523531 16.523531 16.523531 16.523531 16.523531 16.523531 16.523531 16.523531 16.523531 16.523531 16.523531 16.523531 15.982746 15.905492 15.828237 15.750982 15.750982 15.750982 15.750982 15.673727 15.673727 15.673727 15.673727 15.673727 15.673727 15.673727 15.673727 15.673727 15.673727 15.673727 15.673727 15.673727 15.673727 15.673727 15.673727 15.750982 15.750982 15.750982 15.750982 15.750982 15.750982 15.750982 15.750982 15.750982 15.750982 15.750982 15.750982 15.673727 15.673727 15.673727 15.596472 15.596472 15.596472 15.596472 15.596472 15.596472 15.596472 15.596472 15.596472 15.596472 15.673727 15.673727 15.750982 15.750982 15.828237 15.828237 15.905492 15.905492 15.982746 15.982746 15.982746 16.060001 16.060001 16.060001 16.060001 16.060001 16.060001 16.060001 16.060001 16.060001 16.060001 15.982746 15.905492 14.669412 14.592157 14.592157 14.514902 14.514902 14.514902 14.514902 14.437648 14.437648 14.437648 14.437648 14.360393 14.360393 14.360393 14.283137 14.283137 14.205883 14.128628 14.051373 13.974118 13.896863 13.819609 13.742353 13.665098 13.587844 13.510589 13.510589 13.510589 13.510589 13.433333 13.433333 13.433333 13.433333 13.433333 13.433333 13.433333 13.433333 13.510589 13.742353 13.742353 13.819609 13.819609 13.819609 13.819609 13.819609 13.819609 13.819609 13.819609 13.819609 13.742353 13.742353 13.742353 13.665098 13.665098 13.587844 13.587844 13.510589 13.510589 13.433333 13.433333 13.356079 13.356079 13.278824 13.278824 13.201569 13.201569 13.201569 13.124314 13.124314 13.124314 13.124314 13.047059 13.047059 13.047059 12.969805 12.969805 12.969805 12.8925495 12.8925495 12.969805 12.969805 13.047059 13.124314 13.124314 13.124314 13.124314 13.124314 13.201569 13.201569 13.201569 13.201569 15.132942 14.978432 14.901176 14.823922 14.746667 14.669412 14.592157 13.124314 13.047059 13.047059 12.969805 12.8925495 12.815294 12.815294 12.73804 12.660785 12.506275 12.42902 12.351766 12.197255 12.120001 12.042746 11.96549
16.214512 16.214512 16.214512 16.214512 16.214512 16.214512 16.214512 16.214512 16.214512 16.214512 16.214512 16.214512 16.214512 16.214512 16.214512 16.214512 16.214512 16.137257 16.137257 16.137257 16.137257 16.137257 16.137257 16.137257 16.137257 16.137257 16.137257 16.060001 16.060001 16.137257 16.137257 16.137257 16.137257 16.137257 16.137257 16.137257 16.137257 16.137257 16.214512 16.214512 16.214512 16.214512 16.214512 16.214512 16.214512 16.214512 16.214512 16.291765 16.291765 16.291765 16.291765 16.291765 16.291765 16.291765 16.36902 16.36902 16.36902 16.36902 16.446276 16.523531 16.523531 16.523531 16.600786 16.678041 16.678041 16.755295 16.755295 16.755295 16.83255 16.83255 16.909805 16.909805 16.909805 16.909805 16.909805 16.909805 16.909805 16.909805 16.909805 16.909805 16.909805 16.909805 16.909805 16.909805 16.83255 16.83255 16.755295 16.755295 16.755295 16.678041 16.678041 16.678041 16.678041 16.678041 16.678041 16.678041 16.678041 16.678041 16.678041 16.755295 16.755295 16.755295 16.755295 16.755295 16.678041 16.678041 16.678041 16.678041 16.600786 16.600786 16.600786 16.600786 16.523531 16.523531 16.523531 16.523531 16.523531 16.523531 16.523531 16.523531 16.523531 16.523531 16.523531 16.523531 16.600786 16.600786 16.060001 15.905492 15.828237 15.828237 15.828237 15.750982 15.750982 15.750982 15.750982 15.750982 15.750982 15.673727 15.673727 15.673727 15.673727 15.673727 15.673727 15.673727 15.673727 15.673727 15.750982 15.750982 15.750982 15.750982 15.750982 15.750982 15.828237 15.828237 15.828237 15.828237 15.828237 15.828237 15.750982 15.750982 15.750982 15.750982 15.750982 15.673727 15.673727 15.673727 15.596472 15.596472 15.596472 15.596472 15.596472 15.596472 15.673727 15.673727 15.673727 15.750982 15.750982 15.828237 15.828237 15.905492 15.905492 15.982746 15.982746 15.982746 16.060001 16.060001 16.060001 16.137257 16.137257 16.137257 16.137257 16.137257 16.137257 16.060001 16.060001 15.982746 14.746667 14.669412 14.592157 14.592157 14.592157 14.514902 14.514902 14.514902 14.514902 14.514902 14.437648 14.437648 14.437648 14.360393 14.360393 14.283137 14.283137 14.205883 14.128628 14.051373 13.974118 13.896863 13.819609 13.742353 13.665098 13.587844 13.587844 13.510589 13.510589 13.510589 13.510589 13.433333 13.433333 13.433333 13.433333 13.510589 13.510589 13.510589 13.510589 13.742353 13.819609 13.819609 13.819609 13.819609 13.819609 13.819609 13.819609 13.819609 13.819609 13.819609 13.819609 13.742353 13.742353 13.742353 13.665098 13.665098 13.124314 13.587844 13.510589 13.433333 13.433333 13.356079 13.356079 13.278824 13.278824 13.278824 13.201569 13.201569 13.201569 13.124314 13.124314 13.124314 13.047059 13.047059 12.969805 12.969805 12.969805 12.8925495 12.8925495 12.8925495 12.969805 13.047059 13.047059 13.124314 13.124314 13.124314 13.124314 13.201569 13.201569 13.201569 13.278824 13.278824 15.055687 14.978432 14.901176 14.823922 14.746667 14.669412 13.201569 13.124314 13.047059 13.047059 12.969805 12.8925495 12.815294 12.73804 12.660785 12.583529 12.506275 12.42902 12.27451 12.120001 12.042746 11.96549 11.888236
16.214512 16.214512 16.214512 16.291765 16.291765 16.291765 16.291765 16.291765 16.291765 16.291765 16.291765 16.291765 16.214512 16.214512 16.214512 16.214512 16.214512 16.214512 16.214512 16.214512 16.214512 16.214512 16.137257 16.137257 16.137257 16.137257 16.137257 16.137257 16.137257 16.137257 16.137257 16.137257 16.137257 16.137257 16.214512 16.214512 16.214512 16.214512 16.214512 16.214512 16.214512 16.214512 16.291765 16.291765 16.291765 16.291765 16.291765 16.291765 16.291765 16.291765 16.291765 16.291765 16.36902 16.36902 16.36902 16.36902 16.36902 16.446276 16.446276 16.523531 16.523531 16.600786 16.600786 16.678041 16.755295 16.755295 16.83255 16.83255 16.83255 16.909805 16.909805 16.909805 16.909805 16.98706 16.98706 16.98706 16.98706 16.98706 16.98706 16.98706 16.98706 16.98706 16.909805 16.909805 16.909805 16.83255 16.83255 16.83255 16.755295 16.755295 16.755295 16.755295 16.755295 16.755295 16.755295 16.755295 16.755295 16.755295 16.755295 16.755295 16.755295 16.755295 16.755295 16.755295 16.755295 16.755295 16.678041 16.678041 16.678041 16.678041 16.600786 16.600786 16.600786 16.600786 16.600786 16.600786 16.600786 16.600786 16.600786 16.600786 16.600786 16.600786 16.600786 16.600786 16.600786 16.600786 16.060001 15.982746 15.905492 15.828237 15.828237 15.828237 15.828237 15.750982 15.750982 15.750982 15.750982 15.750982 15.750982 15.750982 15.750982 15.750982 15.750982 15.750982 15.750982 15.750982 15.750982 15.750982 15.750982 15.828237 15.828237 15.828237 15.828237 15.828237 15.828237 15.828237 15.828237 15.828237 15.828237 15.828237 15.828237 15.750982 15.750982 15.750982 15.750982 15.673727 15.673727 15.673727 15.673727 15.673727 15.673727 15.673727 15.673727 15.673727 15.750982 15.750982 15.828237 15.828237 15.905492 15.905492 15.982746 15.982746 16.060001 16.060001 16.060001 16.137257 16.137257 16.137257 16.137257 16.137257 16.137257 16.137257 16.137257 16.137257 16.060001 15.982746 14.746667 14.669412 14.669412 14.592157 14.592157 14.592157 14.592157 14.514902 14.514902 14.514902 14.514902 14.437648 14.437648 14.437648 14.360393 14.360393 14.283137 14.205883 14.128628 14.051373 13.974118 13.974118 13.819609 13.742353 13.665098 13.587844 13.587844 13.587844 13.510589 13.510589 13.510589 13.510589 13.510589 13.510589 13.510589 13.510589 13.510589 13.510589 13.510589 13.819609 13.819609 13.896863 13.896863 13.896863 13.896863 13.896863 13.896863 13.896863 13.819609 13.819609 13.819609 13.819609 13.742353 13.742353 13.124314 13.124314 13.124314 13.124314 13.510589 13.510589 13.433333 13.433333 13.356079 13.278824 13.278824 13.278824 13.201569 13.201569 13.201569 13.124314 13.124314 13.124314 13.047059 13.047059 12.969805 12.969805 12.8925495 12.8925495 12.815294 12.815294 12.815294 12.815294 12.815294 13.124314 13.201569 13.201569 13.201569 13.201569 13.201569 13.278824 13.278824 13.278824 13.356079 14.978432 13.356079 13.278824 14.669412 13.201569 13.201569 13.124314 13.047059 12.969805 12.969805 12.8925495 12.815294 12.73804 12.660785 12.583529 12.506275 12.27451 12.197255 12.042746 11.96549 11.888236 11.888236
16.214512 16.291765 16.291765 16.291765 16.291765 16.36902 16.36902 16.36902 16.36902 16.36902 16.291765 16.291765 16.291765 16.291765 16.291765 16.291765 16.291765 16.291765 16.214512 16.214512 16.214512 16.214512 16.214512 16.214512 16.214512 16.214512 16.214512 16.214512 16.214512 16.214512 16.214512 16.214512 16.214512 16.214512 16.214512 16.214512 16.214512 16.214512 16.291765 16.291765 16.291765 16.291765 16.291765 16.291765 16.291765 16.36902 16.36902 16.36902 16.36902 16.36902 16.36902 16.36902 16.36902 16.36902 16.36902 16.446276 16.446276 16.446276 16.523531 16.523531 16.600786 16.600786 16.678041 16.678041 16.755295 16.755295 16.83255 16.83255 16.909805 16.909805 16.909805 16.98706 16.98706 16.98706 16.98706 16.98706 16.98706 17.064316 17.064316 16.98706 16.98706 16.98706 16.98706 16.98706 16.909805 16.909805 16.909805 16.83255 16.83255 16.83255 16.755295 16.755295 16.755295 16.755295 16.755295 16.755295 16.755295 16.83255 16.83255 16.83255 16.83255 16.83255 16.83255 16.83255 16.83255 16.755295 16.755295 16.755295 16.755295 16.678041 16.678041 16.678041 16.678041 16.600786 16.600786 16.600786 16.600786 16.600786 16.600786 16.600786 16.600786 16.600786 16.600786 16.600786 16.600786 16.600786 16.060001 15.982746 15.905492 15.905492 15.828237 15.828237 15.828237 15.828237 15.828237 15.828237 15.828237 15.750982 15.750982 15.750982 15.750982 15.750982 15.750982 15.750982 15.750982 15.750982 15.828237 15.828237 15.828237 15.828237 15.828237 15.828237 15.905492 15.905492 15.905492 15.905492 15.905492 15.905492 15.828237 15.828237 15.828237 15.828237 15.750982 15.750982 15.750982 15.750982 15.673727 15.673727 15.673727 15.673727 15.673727 15.673727 15.750982 15.750982 15.750982 15.828237 15.828237 15.905492 15.982746 15.982746 15.982746 16.060001 16.060001 16.137257 16.137257 16.137257 16.137257 16.214512 16.214512 16.214512 16.214512 16.214512 16.137257 16.137257 16.060001 14.901176 14.746667 14.669412 14.669412 14.669412 14.592157 14.592157 14.592157 14.592157 14.514902 14.514902 14.514902 14.514902 14.437648 14.437648 14.360393 14.360393 14.283137 14.205883 14.128628 14.051373 13.974118 13.974118 13.819609 13.819609 13.665098 13.665098 13.587844 13.587844 13.587844 13.510589 13.510589 13.510589 13.510589 13.510589 13.510589 13.510589 13.510589 13.510589 13.587844 13.819609 13.896863 13.896863 13.896863 13.896863 13.896863 13.896863 13.896863 13.433333 13.433333 13.819609 13.819609 13.278824 13.201569 13.124314 13.124314 13.124314 13.124314 13.047059 13.047059 13.124314 13.124314 13.356079 13.356079 13.278824 13.278824 13.278824 13.278824 13.201569 13.201569 13.124314 13.124314 13.047059 13.047059 13.047059 12.969805 12.969805 12.8925495 12.8925495 12.815294 12.815294 12.815294 12.815294 12.73804 13.201569 13.201569 13.201569 13.201569 13.278824 13.278824 13.278824 13.278824 13.356079 13.356079 13.356079 13.278824 13.278824 13.201569 13.201569 13.124314 13.124314 13.047059 12.969805 12.8925495 12.8925495 12.815294 12.73804 12.660785 12.506275 12.351766 12.197255 12.120001 12.042746 11.96549 11.888236 11.579216
16.291765 16.291765 16.36902 16.36902 16.36902 16.36902 16.36902 16.36902 16.36902 16.36902 16.36902 16.36902 16.36902 16.36902 16.36902 16.291765 16.291765 16.291765 16.291765 16.291765 16.291765 16.291765 16.291765 16.214512 16.214512 16.214512 16.214512 16.214512 16.214512 16.214512 16.214512 16.214512 16.214512 16.214512 16.291765 16.291765 16.291765 16.291765 16.291765 16.291765 16.36902 16.36902 16.36902 16.36902 16.36902 16.36902 16.36902 16.36902 16.36902 16.36902 16.36902 16.36902 16.36902 16.446276 16.446276 16.446276 16.523531 16.523531 16.523531 16.600786 16.600786 16.678041 16.678041 16.755295 16.755295 16.83255 16.83255 16.909805 16.909805 16.98706 16.98706 16.98706 16.98706 17.064316 17.064316 17.064316 17.064316 17.064316 17.064316 17.064316 17.064316 17.064316 17.064316 16.98706 16.98706 16.98706 16.909805 16.909805 16.909805 16.83255 16.83255 16.83255 16.83255 16.83255 16.83255 16.83255 16.83255 16.83255 16.83255 16.83255 16.83255 16.83255 16.83255 16.83255 16.83255 16.83255 16.83255 16.755295 16.755295 16.755295 16.755295 16.678041 16.678041 16.678041 16.678041 16.678041 16.678041 16.678041 16.678041 16.678041 16.678041 16.678041 16.678041 16.678041 16.678041 16.600786 16.137257 16.060001 15.982746 15.905492 15.905492 15.905492 15.905492 15.828237 15.828237 15.828237 15.828237 15.828237 15.828237 15.828237 15.828237 15.828237 15.828237 15.828237 15.828237 15.828237 15.828237 15.828237 15.828237 15.905492 15.905492 15.905492 15.905492 15.905492 15.905492 15.905492 15.905492 15.905492 15.905492 15.905492 15.828237 15.828237 15.828237 15.828237 15.750982 15.750982 15.750982 15.750982 15.750982 15.750982 15.750982 15.750982 15.750982 15.750982 15.828237 15.828237 15.905492 15.982746 15.982746 16.060001 16.060001 16.060001 16.137257 16.137257 16.137257 16.214512 16.214512 16.214512 16.214512 16.214512 16.214512 16.214512 16.214512 16.137257 16.137257 14.901176 14.823922 14.746667 14.669412 14.669412 14.669412 14.592157 14.592157 14.592157 14.592157 14.592157 14.514902 14.514902 14.514902 14.437648 14.437648 14.360393 14.283137 14.205883 14.205883 14.128628 14.051373 13.974118 13.896863 13.819609 13.665098 13.665098 13.665098 13.587844 13.587844 13.587844 13.510589 13.510589 13.510589 13.510589 13.510589 13.510589 13.510589 13.510589 13.587844 13.587844 13.896863 13.974118 13.974118 13.974118 13.896863 13.896863 13.433333 13.433333 13.433333 13.278824 13.278824 13.201569 13.201569 13.124314 13.124314 13.124314 13.124314 13.047059 13.047059 13.124314 13.124314 13.124314 13.356079 13.278824 13.278824 13.278824 13.278824 13.201569 13.201569 13.124314 13.124314 13.047059 13.047059 12.969805 12.969805 12.8925495 12.8925495 12.8925495 12.815294 12.815294 12.815294 12.815294 12.73804 12.815294 13.201569 13.278824 13.278824 13.278824 13.278824 13.278824 13.278824 13.278824 13.278824 13.278824 13.278824 13.278824 13.278824 13.201569 13.124314 13.124314 13.047059 12.969805 12.8925495 12.8925495 12.73804 12.660785 12.583529 12.351766 12.27451 12.120001 12.042746 11.96549 11.810981 11.656471 11.579216
16.291765 16.36902 16.36902 16.36902 16.36902 16.36902 16.446276 16.446276 16.446276 16.36902 16.36902 16.36902 16.36902 16.36902 16.36902 16.36902 16.36902 16.36902 16.36902 16.36902 16.291765 16.291765 16.291765 16.291765 16.291765 16.291765 16.291765 16.291765 16.291765 16.291765 16.291765 16.291765 16.291765 16.291765 16.291765 16.291765 16.291765 16.36902 16.36902 16.36902 16.36902 16.36902 16.36902 16.36902 16.36902 16.36902 16.446276 16.446276 16.446276 16.446276 16.446276 16.446276 16.446276 16.446276 16.446276 16.523531 16.523531 16.523531 16.600786 16.600786 16.678041 16.678041 16.755295 16.755295 16.83255 16.83255 16.909805 16.909805 16.98706 16.98706 16.98706 17.064316 17.064316 17.064316 17.064316 17.14157 17.14157 17.14157 17.14157 17.14157 17.14157 17.064316 17.064316 17.064316 17.064316 16.98706 16.98706 16.909805 16.909805 16.909805 16.909805 16.909805 16.83255 16.83255 16.83255 16.909805 16.909805 16.909805 16.909805 16.909805 16.909805 16.909805 16.909805 16.909805 16.909805 16.909805 16.83255 16.83255 16.83255 16.83255 16.755295 16.755295 16.755295 16.755295 16.678041 16.678041 16.678041 16.678041 16.678041 16.678041 16.678041 16.678041 16.678041 16.678041 16.678041 16.600786 16.137257 16.060001 15.982746 15.982746 15.982746 15.905492 15.905492 15.905492 15.905492 15.905492 15.905492 15.828237 15.828237 15.828237 15.828237 15.828237 15.828237 15.828237 15.828237 15.828237 15.905492 15.905492 15.905492 15.905492 15.905492 15.982746 15.982746 15.982746 15.982746 15.982746 15.982746 15.982746 15.982746 15.905492 15.905492 15.905492 15.828237 15.828237 15.828237 15.828237 15.750982 15.750982 15.750982 15.750982 15.750982 15.750982 15.750982 15.828237 15.828237 15.905492 15.982746 15.982746 16.060001 16.060001 16.060001 16.137257 16.137257 16.214512 16.214512 16.214512 16.214512 16.291765 16.291765 16.291765 16.291765 16.214512 16.214512 16.214512 16.137257 14.901176 14.823922 14.746667 14.669412 14.669412 14.669412 14.669412 14.669412 14.592157 14.592157 14.592157 14.592157 14.514902 14.514902 14.437648 14.437648 14.360393 14.283137 14.283137 14.205883 14.128628 14.051373 13.974118 13.896863 13.819609 13.742353 13.665098 13.665098 13.665098 13.587844 13.587844 13.587844 13.510589 13.510589 13.587844 13.510589 13.510589 13.510589 13.587844 13.587844 13.587844 13.587844 13.587844 13.510589 13.974118 13.510589 13.510589 13.433333 13.433333 13.278824 13.278824 13.201569 13.201569 13.201569 13.201569 13.124314 13.124314 13.124314 13.047059 13.047059 13.047059 13.047059 13.047059 13.124314 13.124314 13.124314 13.278824 13.278824 13.201569 13.124314 13.124314 13.124314 13.047059 13.047059 12.969805 12.8925495 12.8925495 12.8925495 12.8925495 12.815294 12.815294 12.815294 12.815294 12.815294 12.815294 13.278824 13.278824 13.278824 13.278824 13.278824 13.278824 13.356079 13.356079 13.356079 13.278824 13.278824 13.278824 13.278824 13.201569 13.201569 13.124314 13.047059 12.969805 12.8925495 12.815294 12.73804 12.660785 12.42902 12.197255 12.120001 12.042746 11.96549 11.810981 11.733726 11.656471 11.579216
16.36902 16.36902 16.36902 16.446276 16.446276 16.446276 16.446276 16.446276 16.446276 16.446276 16.446276 16.446276 16.446276 16.446276 16.36902 16.36902 16.36902 16.36902 16.36902 16.36902 16.36902 16.36902 16.36902 16.36902 16.36902 16.36902 16.291765 16.291765 16.291765 16.291765 16.291765 16.291765 16.291765 16.36902 16.36902 16.36902 16.36902 16.36902 16.36902 16.36902 16.36902 16.446276 16.446276 16.446276 16.446276 16.446276 16.446276 16.446276 16.446276 16.446276 16.446276 16.523531 16.523531 16.523531 16.523531 16.523531 16.523531 16.600786 16.600786 16.600786 16.678041 16.755295 16.755295 16.83255 16.83255 16.909805 16.909805 16.98706 16.98706 17.064316 17.064316 17.064316 17.14157 17.14157 17.14157 17.14157 17.14157 17.14157 17.14157 17.14157 17.14157 17.14157 17.14157 17.14157 17.064316 17.064316 16.98706 16.98706 16.98706 16.909805 16.909805 16.909805 16.909805 16.909805 16.909805 16.909805 16.909805 16.909805 16.909805 16.909805 16.909805 16.909805 16.909805 16.909805 16.909805 16.909805 16.909805 16.909805 16.83255 16.83255 16.83255 16.83255 16.755295 16.755295 16.755295 16.755295 16.755295 16.755295 16.755295 16.755295 16.755295 16.755295 16.755295 16.755295 16.678041 16.36902 16.137257 16.137257 16.060001 15.982746 15.982746 15.982746 15.982746 15.982746 15.905492 15.905492 15.905492 15.905492 15.905492 15.905492 15.905492 15.905492 15.905492 15.905492 15.905492 15.905492 15.905492 15.905492 15.982746 15.982746 15.982746 15.982746 15.982746 15.982746 15.982746 15.982746 15.982746 15.982746 15.982746 15.982746 15.982746 15.905492 15.905492 15.905492 15.828237 15.828237 15.828237 15.828237 15.750982 15.750982 15.750982 15.828237 15.828237 15.828237 15.905492 15.982746 15.982746 16.060001 16.060001 16.137257 16.137257 16.137257 16.214512 16.214512 16.214512 16.291765 16.291765 16.291765 16.291765 16.291765 16.291765 16.291765 16.291765 16.214512 14.978432 14.901176 14.823922 14.746667 14.746667 14.746667 14.669412 14.669412 14.669412 14.669412 14.669412 14.592157 14.592157 14.592157 14.514902 14.514902 14.437648 14.360393 14.360393 14.283137 14.205883 14.128628 14.051373 13.974118 13.896863 13.819609 13.742353 13.665098 13.665098 13.665098 13.587844 13.587844 13.587844 13.587844 13.587844 13.587844 13.587844 13.510589 13.510589 13.587844 13.510589 13.510589 13.587844 13.587844 13.510589 13.510589 13.433333 13.433333 13.356079 13.356079 13.278824 13.278824 13.278824 13.201569 13.201569 13.201569 13.124314 13.124314 13.124314 13.124314 13.047059 13.047059 13.047059 13.124314 13.047059 13.047059 13.124314 13.201569 13.047059 13.047059 13.047059 13.047059 12.969805 12.969805 12.969805 12.8925495 12.8925495 12.8925495 12.8925495 12.8925495 12.815294 12.815294 12.815294 12.815294 12.815294 12.815294 13.278824 13.278824 13.278824 13.278824 13.356079 13.356079 13.356079 13.356079 13.356079 13.356079 13.278824 13.278824 13.278824 13.201569 13.201569 13.124314 13.047059 12.969805 12.8925495 12.815294 12.73804 12.42902 12.197255 12.120001 12.120001 11.96549 11.888236 11.810981 11.656471 11.579216 11.501962
16.36902 16.36902 16.446276 16.446276 16.446276 16.523531 16.523531 16.523531 16.523531 16.523531 16.523531 16.523531 16.523531 16.446276 16.446276 16.446276 16.446276 16.446276 16.446276 16.446276 16.446276 16.36902 16.36902 16.36902 16.36902 16.36902 16.36902 16.36902 16.36902 16.36902 16.36902 16.36902 16.36902 16.36902 16.36902 16.36902 16.36902 16.36902 16.446276 16.446276 16.446276 16.446276 16.446276 16.446276 16.523531 16.523531 16.523531 16.523531 16.523531 16.523531 16.523531 16.523531 16.523531 16.523531 16.523531 16.600786 16.600786 16.600786 16.600786 16.678041 16.678041 16.755295 16.83255 16.83255 16.909805 16.909805 16.98706 16.98706 17.064316 17.064316 17.14157 17.14157 17.14157 17.14157 17.14157 17.218824 17.218824 17.218824 17.218824 17.218824 17.218824 17.218824 17.14157 17.14157 17.14157 17.14157 17.064316 17.064316 16.98706 16.98706 16.98706 16.98706 16.909805 16.909805 16.98706 16.98706 16.98706 16.98706 16.98706 16.98706 16.98706 16.98706 16.98706 16.98706 16.98706 16.98706 16.909805 16.909805 16.909805 16.909805 16.909805 16.83255 16.83255 16.83255 16.83255 16.755295 16.755295 16.755295 16.755295 16.755295 16.755295 16.755295 16.755295 16.755295 16.755295 16.36902 16.214512 16.137257 16.060001 16.060001 16.060001 15.982746 15.982746 15.982746 15.982746 15.982746 15.982746 15.982746 15.982746 15.905492 15.905492 15.905492 15.905492 15.905492 15.905492 15.982746 15.982746 15.982746 15.982746 15.982746 15.982746 16.060001 16.060001 16.060001 16.060001 16.060001 16.060001 16.060001 16.060001 15.982746 15.982746 15.982746 15.905492 15.905492 15.905492 15.828237 15.828237 15.828237 15.828237 15.828237 15.828237 15.828237 15.828237 15.905492 15.982746 15.982746 16.060001 16.060001 16.137257 16.137257 16.137257 16.214512 16.214512 16.291765 16.291765 16.291765 16.36902 16.36902 16.36902 16.36902 16.36902 16.291765 16.291765 16.214512 14.978432 14.901176 14.823922 14.823922 14.746667 14.746667 14.746667 14.746667 14.669412 14.669412 14.669412 14.669412 14.592157 14.592157 14.592157 14.514902 14.514902 14.437648 14.360393 14.283137 14.205883 14.128628 14.051373 13.974118 13.896863 13.819609 13.742353 13.742353 13.665098 13.665098 13.665098 13.587844 13.587844 13.587844 13.587844 13.587844 13.510589 13.510589 13.587844 13.587844 13.510589 13.510589 13.510589 13.510589 13.510589 13.433333 13.433333 13.433333 13.356079 13.356079 13.278824 13.278824 13.278824 13.278824 13.201569 13.201569 13.201569 13.124314 13.124314 13.124314 13.124314 13.124314 13.124314 13.124314 13.047059 13.047059 13.047059 13.047059 13.047059 13.047059 13.047059 12.969805 12.969805 12.969805 12.969805 12.8925495 12.8925495 12.8925495 12.8925495 12.8925495 12.8925495 12.8925495 12.815294 12.815294 12.815294 12.8925495 12.8925495 13.356079 13.356079 13.356079 13.356079 13.356079 13.356079 13.356079 13.356079 13.356079 13.356079 13.278824 13.278824 13.201569 13.124314 13.124314 13.047059 12.969805 12.8925495 12.815294 12.660785 12.27451 12.197255 12.120001 12.042746 11.96549 11.888236 11.733726 11.656471 11.579216 11.501962
