16.137257 16.137257 16.214512 16.214512 16.214512 16.291765 16.291765 16.36902 16.36902 16.36902 16.446276 16.446276 16.446276 16.523531 16.523531 16.600786 16.600786 16.600786 16.678041 16.678041 16.755295 16.755295 16.755295 16.83255 16.83255 16.909805 16.909805 16.909805 16.98706 16.98706 17.064316 17.064316 17.064316 17.14157 17.14157 17.14157 17.218824 16.678041 16.678041 16.600786 16.600786 16.36902 16.36902 16.36902 16.36902 16.36902 16.446276 16.446276 16.523531 16.523531 16.523531 16.600786 16.600786 16.678041 16.678041 16.755295 16.755295 16.755295 16.83255 16.83255 16.909805 16.909805 16.98706 16.98706 17.064316 17.064316 17.14157 17.14157 17.218824 17.218824 17.218824 17.29608 17.373335 17.373335 17.45059 17.45059 17.527845 17.527845 17.605099 17.605099 17.682354 17.682354 17.75961 17.75961 17.836864 17.836864 17.91412 17.91412 17.991373 18.068628 18.068628 14.901176 14.592157 13.974118 13.742353 13.665098 13.587844 13.587844 13.510589 13.433333 13.510589 13.510589 13.587844 13.587844 13.665098 13.665098 13.742353 13.742353 13.819609 12.120001 11.96549 11.96549 11.96549 11.96549 11.96549 11.96549 12.042746 12.042746 11.501962 11.270197 11.115686 11.115686 11.115686 11.115686 11.192942 11.192942 11.192942 11.270197 11.270197 11.270197 11.347451 11.347451 11.347451 11.424706 11.424706 11.424706 11.501962 11.501962 11.501962 11.579216 11.579216 11.656471 11.656471 11.656471 11.656471 11.656471 11.733726 11.733726 11.733726 11.810981 11.810981 11.810981 11.810981 11.888236 11.888236 11.888236 11.96549 11.96549 11.96549 12.042746 12.042746 12.042746 12.120001 12.120001 12.120001 3.699216 3.699216 3.699216 3.699216 3.699216 3.699216 3.7764707 3.7764707 3.7764707 3.7764707 3.7764707 3.7764707 3.7764707 3.8537257 3.8537257 3.8537257 3.8537257 3.9309804 3.9309804 3.9309804 3.9309804 3.9309804 4.0082355 4.0082355 4.0082355 4.0082355 4.0854907 4.0854907 4.0854907 4.0854907 4.1627455 11.501962 11.424706 11.424706 10.729412 10.729412 10.729412 10.729412 10.806667 10.806667 10.883923 10.883923 10.883923 10.883923 10.806667 10.729412 10.729412 10.652158 10.574903 8.334511 8.18 8.102746 7.948236 7.870981 7.716471 7.639216 7.561961 7.407451 7.3301964 7.252941 7.252941 7.252941 7.252941 7.252941 7.252941 7.252941 7.252941 7.252941 7.252941 7.252941 7.252941 7.252941 7.252941 7.252941 7.252941 7.252941 7.252941 7.252941 7.252941 7.3301964 7.3301964 7.3301964 7.3301964 7.3301964 7.252941 7.252941 7.1756864 7.1756864 7.0984316 7.021177 7.021177 6.9439216 6.9439216 6.866667 6.866667 6.789412 6.789412 6.7121572 6.7121572 6.634902 6.634902 6.557647 6.557647 6.4803925 6.4803925 6.4803925 6.4031377 6.4031377 6.3258824 6.3258824 6.2486277 6.2486277 6.171373 6.171373 6.171373 6.094118 6.094118 6.094118 6.094118 6.094118 6.094118 6.094118 6.094118 6.016863 6.016863 6.016863 6.016863 6.016863 6.016863 6.016863 6.016863 6.016863 6.016863 6.016863 6.016863 6.016863 6.016863 6.016863 6.016863 6.016863 6.016863 6.016863 6.016863 6.016863 6.016863 6.016863 6.016863 6.016863 6.016863 6.016863 6.016863 6.016863 6.016863 6.016863
16.137257 16.214512 16.214512 16.214512 16.291765 16.291765 16.36902 16.36902 16.36902 16.446276 16.446276 16.446276 16.523531 16.523531 16.523531 16.600786 16.600786 16.678041 16.678041 16.678041 16.755295 16.755295 16.83255 16.83255 16.909805 16.909805 16.909805 16.98706 16.98706 17.064316 17.064316 17.064316 17.14157 17.14157 17.14157 17.218824 17.218824 16.600786 16.600786 16.523531 16.446276 16.36902 16.36902 16.36902 16.36902 16.446276 16.446276 16.446276 16.523531 16.523531 16.600786 16.600786 16.600786 16.678041 16.678041 16.755295 16.755295 16.755295 16.83255 16.83255 16.909805 16.909805 16.98706 16.98706 17.064316 17.064316 17.14157 17.14157 17.218824 17.218824 17.218824 17.29608 17.373335 17.373335 17.45059 17.45059 17.527845 17.527845 17.605099 17.605099 17.682354 17.682354 17.75961 17.75961 17.836864 17.836864 17.91412 17.91412 17.991373 18.068628 18.068628 14.901176 14.592157 14.051373 13.742353 13.665098 13.587844 13.587844 13.510589 13.433333 13.510589 13.510589 13.587844 13.587844 13.665098 13.665098 13.742353 12.351766 12.042746 11.888236 11.888236 11.888236 11.888236 11.888236 11.888236 11.888236 11.733726 11.579216 11.347451 11.192942 11.115686 11.115686 11.115686 11.115686 11.115686 11.192942 11.192942 11.192942 11.270197 11.270197 11.270197 11.347451 11.347451 11.347451 11.424706 11.424706 11.424706 11.501962 11.501962 11.501962 11.579216 11.579216 11.579216 11.656471 11.656471 11.656471 11.656471 11.733726 11.733726 11.733726 11.810981 11.810981 11.810981 11.888236 11.888236 11.888236 11.96549 11.96549 11.96549 12.042746 12.042746 12.042746 12.120001 12.120001 12.120001 3.699216 3.699216 3.699216 3.699216 3.699216 3.7764707 3.7764707 3.7764707 3.7764707 3.7764707 3.7764707 3.7764707 3.8537257 3.8537257 3.8537257 3.8537257 3.8537257 3.9309804 3.9309804 3.9309804 3.9309804 3.9309804 4.0082355 4.0082355 4.0082355 4.0854907 4.0854907 4.0854907 4.0854907 11.579216 11.579216 11.501962 11.424706 11.347451 10.652158 10.729412 10.729412 10.806667 10.806667 10.806667 10.883923 10.883923 10.883923 10.806667 10.806667 10.729412 10.652158 10.652158 10.574903 10.497647 8.18 8.102746 7.948236 7.870981 7.716471 7.639216 7.484706 7.407451 7.3301964 7.252941 7.252941 7.252941 7.252941 7.252941 7.252941 7.252941 7.252941 7.252941 7.252941 7.252941 7.252941 7.252941 7.252941 7.252941 7.252941 7.252941 7.252941 7.252941 7.252941 7.3301964 7.3301964 7.3301964 7.3301964 7.3301964 7.252941 7.252941 7.1756864 7.0984316 7.0984316 7.021177 7.021177 6.9439216 6.9439216 6.866667 6.866667 6.789412 6.789412 6.7121572 6.7121572 6.634902 6.634902 6.557647 6.557647 6.4803925 6.4803925 6.4803925 6.4031377 6.4031377 6.3258824 6.3258824 6.2486277 6.2486277 6.171373 6.171373 6.171373 6.094118 6.094118 6.094118 6.094118 6.094118 6.094118 6.016863 6.016863 6.016863 6.016863 6.016863 6.016863 6.016863 6.016863 5.939608 5.939608 5.939608 5.939608 5.939608 6.016863 6.016863 6.016863 6.016863 6.016863 6.016863 6.016863 6.016863 6.016863 6.016863 6.016863 6.016863 6.016863 6.016863 6.016863 6.016863 6.016863 6.016863 6.016863 6.016863
16.137257 16.214512 16.214512 16.291765 16.291765 16.291765 16.36902 16.36902 16.36902 16.446276 16.446276 16.523531 16.523531 16.523531 16.600786 16.600786 16.678041 16.678041 16.678041 16.755295 16.755295 16.83255 16.83255 16.83255 16.909805 16.909805 16.98706 16.98706 16.98706 17.064316 17.064316 17.14157 17.14157 17.218824 17.218824 17.218824 16.600786 16.523531 16.523531 16.446276 16.446276 16.36902 16.36902 16.36902 16.36902 16.446276 16.446276 16.523531 16.523531 16.523531 16.600786 16.600786 16.600786 16.678041 16.678041 16.755295 16.755295 16.83255 16.83255 16.83255 16.909805 16.909805 16.98706 16.98706 17.064316 17.064316 17.14157 17.14157 17.218824 17.218824 17.29608 17.29608 17.373335 17.373335 17.45059 17.45059 17.527845 17.527845 17.605099 17.605099 17.682354 17.682354 17.75961 17.75961 17.836864 17.836864 17.91412 17.91412 17.991373 18.068628 18.068628 14.901176 14.669412 14.360393 13.819609 13.665098 13.665098 13.587844 13.510589 13.433333 13.510589 13.510589 13.510589 13.587844 13.665098 12.583529 12.27451 12.042746 11.810981 11.810981 11.810981 11.810981 11.810981 11.810981 11.810981 11.810981 11.579216 11.424706 11.270197 11.115686 11.115686 11.038432 11.115686 11.115686 11.115686 11.115686 11.192942 11.192942 11.192942 11.270197 11.270197 11.347451 11.347451 11.347451 11.424706 11.424706 11.424706 11.424706 11.501962 11.501962 11.501962 11.579216 11.579216 11.579216 11.656471 11.656471 11.656471 11.733726 11.733726 11.733726 11.810981 11.810981 11.810981 11.888236 11.888236 11.888236 11.888236 11.96549 11.96549 12.042746 12.042746 12.042746 12.042746 12.120001 12.120001 12.120001 3.7764707 3.699216 3.699216 3.7764707 3.7764707 3.7764707 3.7764707 3.7764707 3.7764707 3.7764707 3.8537257 3.8537257 3.8537257 3.8537257 3.8537257 3.9309804 3.9309804 3.9309804 3.9309804 3.9309804 4.0082355 4.0082355 4.0082355 4.0082355 4.0854907 4.0854907 11.501962 11.501962 11.579216 11.501962 11.424706 11.424706 11.347451 11.270197 11.270197 11.192942 11.115686 11.038432 11.038432 10.961177 10.883923 10.883923 10.806667 10.729412 10.729412 10.652158 10.574903 10.574903 10.497647 8.18 8.025491 7.948236 7.7937264 7.716471 7.639216 7.484706 7.407451 7.3301964 7.252941 7.252941 7.252941 7.252941 7.252941 7.252941 7.252941 7.252941 7.252941 7.252941 7.252941 7.252941 7.252941 7.252941 7.252941 7.252941 7.252941 7.252941 7.252941 7.3301964 7.3301964 7.3301964 7.3301964 7.3301964 7.3301964 7.252941 7.252941 7.1756864 7.0984316 7.0984316 7.021177 7.021177 6.9439216 6.9439216 6.866667 6.866667 6.789412 6.789412 6.7121572 6.7121572 6.634902 6.634902 6.557647 6.557647 6.4803925 6.4803925 6.4803925 6.4031377 6.4031377 6.3258824 6.3258824 6.2486277 6.2486277 6.171373 6.171373 6.171373 6.094118 6.094118 6.094118 6.016863 6.016863 6.016863 6.016863 6.016863 6.016863 6.016863 6.016863 6.016863 5.939608 5.939608 5.939608 5.939608 5.939608 5.939608 5.939608 5.939608 5.939608 5.939608 5.939608 5.939608 5.939608 5.939608 6.016863 6.016863 6.016863 6.016863 6.016863 6.016863 6.016863 6.016863 6.016863 6.016863 6.016863 6.016863 6.016863
16.214512 16.214512 16.214512 16.291765 16.291765 16.36902 16.36902 16.36902 16.36902 16.446276 16.446276 16.523531 16.523531 16.523531 16.600786 16.600786 16.678041 16.678041 16.755295 16.755295 16.755295 16.83255 16.83255 16.909805 16.909805 16.909805 16.98706 16.98706 17.064316 17.064316 17.14157 17.14157 17.14157 17.218824 17.218824 17.29608 16.446276 16.446276 16.446276 16.36902 16.36902 16.36902 16.36902 16.36902 16.36902 16.446276 16.446276 16.523531 16.523531 16.523531 16.600786 16.600786 16.678041 16.678041 16.678041 16.755295 16.755295 16.83255 16.83255 16.83255 16.909805 16.909805 16.98706 16.98706 17.064316 17.064316 17.14157 17.14157 17.218824 17.218824 17.29608 17.29608 17.373335 17.373335 17.45059 17.45059 17.527845 17.527845 17.605099 17.605099 17.682354 17.682354 17.75961 17.75961 17.836864 17.91412 17.91412 17.991373 17.991373 18.068628 18.068628 14.901176 14.669412 14.437648 13.974118 13.665098 13.665098 13.587844 13.510589 13.510589 13.510589 13.510589 13.510589 13.587844 12.506275 12.27451 11.96549 11.733726 11.733726 11.733726 11.810981 11.810981 11.810981 11.810981 11.810981 11.656471 11.501962 11.270197 11.115686 11.115686 11.038432 11.038432 11.038432 11.115686 11.115686 11.115686 11.192942 11.192942 11.192942 11.270197 11.270197 11.270197 11.347451 11.347451 11.347451 11.424706 11.424706 11.424706 11.424706 11.501962 11.501962 11.579216 11.579216 11.579216 11.656471 11.656471 11.656471 11.733726 11.733726 11.733726 11.810981 11.810981 11.810981 11.888236 11.888236 11.888236 11.888236 11.96549 11.96549 12.042746 12.042746 12.042746 12.042746 12.120001 12.120001 12.120001 12.197255 3.7764707 3.7764707 3.7764707 3.7764707 3.7764707 3.7764707 3.7764707 3.7764707 3.8537257 3.8537257 3.8537257 3.8537257 3.8537257 3.8537257 3.9309804 3.9309804 3.9309804 3.9309804 4.0082355 4.0082355 4.0082355 4.0082355 11.424706 11.424706 11.501962 11.501962 11.501962 11.501962 11.501962 11.424706 11.424706 11.347451 11.270197 11.192942 11.115686 11.115686 11.038432 10.961177 10.961177 10.883923 10.806667 10.806667 10.729412 10.652158 10.652158 10.574903 10.574903 10.497647 10.420393 8.025491 7.948236 7.7937264 7.716471 7.561961 7.484706 7.407451 7.3301964 7.252941 7.252941 7.252941 7.252941 7.252941 7.252941 7.252941 7.252941 7.252941 7.252941 7.252941 7.252941 7.252941 7.252941 7.252941 7.252941 7.252941 7.252941 7.3301964 7.3301964 7.3301964 7.3301964 7.3301964 7.3301964 7.3301964 7.252941 7.252941 7.1756864 7.0984316 7.0984316 7.021177 7.021177 6.9439216 6.9439216 6.866667 6.866667 6.789412 6.789412 6.7121572 6.7121572 6.634902 6.634902 6.557647 6.557647 6.4803925 6.4803925 6.4031377 6.4031377 6.4031377 6.3258824 6.3258824 6.2486277 6.2486277 6.171373 6.171373 6.171373 6.094118 6.094118 6.016863 6.016863 6.016863 6.016863 6.016863 6.016863 6.016863 6.016863 5.939608 5.939608 5.939608 5.939608 5.939608 5.939608 5.939608 5.939608 5.939608 5.939608 5.939608 5.939608 5.939608 5.939608 5.939608 5.939608 5.939608 5.939608 5.939608 5.939608 5.939608 5.939608 5.939608 6.016863 6.016863 6.016863 6.016863 6.016863 6.016863
16.214512 16.214512 16.214512 16.291765 16.291765 16.36902 16.36902 16.36902 16.446276 16.446276 16.446276 16.523531 16.523531 16.600786 16.600786 16.600786 16.678041 16.678041 16.755295 16.755295 16.755295 16.83255 16.83255 16.909805 16.909805 16.909805 16.98706 16.98706 17.064316 17.064316 17.14157 17.14157 17.14157 17.218824 17.218824 16.36902 16.36902 16.36902 16.36902 16.36902 16.36902 16.36902 16.36902 16.36902 16.446276 16.446276 16.446276 16.523531 16.523531 16.523531 16.600786 16.600786 16.678041 16.678041 16.678041 16.755295 16.755295 16.83255 16.83255 16.909805 16.909805 16.909805 16.98706 16.98706 17.064316 17.064316 17.14157 17.14157 17.218824 17.218824 17.29608 17.29608 17.373335 17.373335 17.45059 17.45059 17.527845 17.527845 17.605099 17.605099 17.682354 17.682354 17.75961 17.75961 17.836864 17.91412 17.91412 17.991373 17.991373 18.068628 18.068628 14.978432 14.669412 14.437648 14.051373 13.665098 13.665098 13.587844 13.510589 13.510589 13.433333 13.510589 13.510589 12.506275 12.197255 11.888236 11.733726 11.733726 11.733726 11.733726 11.733726 11.733726 11.733726 11.733726 11.733726 11.579216 11.347451 11.192942 11.115686 11.038432 11.038432 11.038432 11.038432 11.115686 11.115686 11.115686 11.115686 11.192942 11.192942 11.192942 11.270197 11.270197 11.270197 11.347451 11.347451 11.347451 11.424706 11.424706 11.424706 11.501962 11.501962 11.501962 11.579216 11.579216 11.579216 11.656471 11.656471 11.656471 11.733726 11.733726 11.810981 11.810981 11.810981 11.888236 11.888236 11.888236 11.888236 11.96549 11.96549 12.042746 12.042746 12.042746 12.042746 12.120001 12.120001 12.120001 12.197255 3.7764707 3.7764707 3.7764707 3.7764707 3.7764707 3.7764707 3.7764707 3.8537257 3.8537257 3.8537257 3.8537257 3.8537257 3.8537257 3.9309804 3.9309804 3.9309804 3.9309804 3.9309804 4.0082355 4.0082355 11.424706 11.424706 11.424706 11.424706 11.424706 11.424706 11.424706 11.424706 11.501962 11.424706 11.347451 11.270197 11.270197 11.192942 11.115686 11.038432 11.038432 10.961177 10.883923 10.883923 10.806667 10.729412 10.729412 10.652158 10.574903 10.574903 10.497647 10.497647 10.420393 8.025491 7.870981 7.7937264 7.639216 7.561961 7.484706 7.407451 7.252941 7.252941 7.252941 7.252941 7.252941 7.252941 7.252941 7.252941 7.252941 7.252941 7.252941 7.252941 7.252941 7.252941 7.252941 7.252941 7.252941 7.252941 7.252941 7.3301964 7.3301964 7.3301964 7.3301964 7.3301964 7.3301964 7.3301964 7.252941 7.252941 7.1756864 7.0984316 7.0984316 7.021177 7.021177 6.9439216 6.9439216 6.866667 6.866667 6.789412 6.789412 6.7121572 6.7121572 6.634902 6.634902 6.557647 6.557647 6.4803925 6.4803925 6.4031377 6.4031377 6.4031377 6.3258824 6.3258824 6.2486277 6.2486277 6.171373 6.171373 6.171373 6.094118 6.094118 6.016863 6.016863 6.016863 6.016863 6.016863 5.939608 5.939608 5.939608 5.939608 5.939608 5.939608 5.939608 5.939608 5.8623533 5.8623533 5.939608 5.939608 5.939608 5.939608 5.939608 5.939608 5.939608 5.939608 5.939608 5.939608 5.939608 5.939608 5.939608 5.939608 5.939608 5.939608 5.939608 5.939608 5.939608 5.939608 5.939608 5.939608
16.214512 16.214512 16.214512 16.291765 16.291765 16.36902 16.36902 16.36902 16.446276 16.446276 16.523531 16.523531 16.523531 16.600786 16.600786 16.600786 16.678041 16.678041 16.755295 16.755295 16.83255 16.83255 16.83255 16.909805 16.909805 16.98706 16.98706 16.98706 17.064316 17.064316 17.14157 17.14157 17.218824 17.218824 16.36902 16.291765 16.291765 16.291765 16.291765 16.291765 16.291765 16.36902 16.36902 16.36902 16.446276 16.446276 16.446276 16.523531 16.523531 16.600786 16.600786 16.600786 16.678041 16.678041 16.755295 16.755295 16.755295 16.83255 16.83255 16.909805 16.909805 16.98706 16.98706 17.064316 17.064316 17.14157 17.14157 17.14157 17.218824 17.218824 17.29608 17.29608 17.373335 17.373335 17.45059 17.45059 17.527845 17.527845 17.605099 17.605099 17.682354 17.75961 17.75961 17.836864 17.836864 17.91412 17.91412 17.991373 17.991373 18.068628 18.068628 18.145884 14.669412 14.437648 14.205883 13.819609 13.665098 13.587844 13.510589 13.510589 13.433333 13.510589 13.510589 12.120001 11.888236 11.656471 11.656471 11.656471 11.656471 11.656471 11.656471 11.733726 11.733726 11.733726 11.656471 11.424706 11.270197 11.115686 11.038432 11.038432 10.961177 11.038432 11.038432 11.038432 11.115686 11.115686 11.115686 11.115686 11.192942 11.192942 11.192942 11.270197 11.270197 11.270197 11.347451 11.347451 11.347451 11.424706 11.424706 11.424706 11.501962 11.501962 11.579216 11.579216 11.579216 11.656471 11.656471 11.656471 11.733726 11.733726 11.733726 11.810981 11.810981 11.810981 11.888236 11.888236 11.888236 11.96549 11.96549 12.042746 12.042746 12.042746 12.042746 12.120001 12.120001 12.120001 12.197255 12.197255 3.7764707 3.7764707 3.7764707 3.7764707 3.7764707 3.7764707 3.8537257 3.8537257 3.8537257 3.8537257 3.8537257 3.9309804 3.9309804 3.9309804 3.9309804 3.9309804 11.424706 11.424706 11.424706 11.347451 11.347451 11.347451 11.424706 11.424706 11.424706 11.424706 11.424706 11.424706 11.424706 11.347451 11.270197 11.192942 11.115686 11.115686 11.038432 11.038432 10.961177 10.883923 10.806667 10.806667 10.729412 10.652158 10.652158 10.574903 10.574903 10.497647 10.420393 10.420393 10.343138 7.870981 7.7937264 7.639216 7.561961 7.484706 7.3301964 7.252941 7.252941 7.252941 7.252941 7.252941 7.252941 7.252941 7.252941 7.252941 7.252941 7.252941 7.252941 7.252941 7.252941 7.252941 7.252941 7.252941 7.252941 7.3301964 7.3301964 7.3301964 7.3301964 7.3301964 7.3301964 7.3301964 7.3301964 7.252941 7.1756864 7.1756864 7.0984316 7.0984316 7.021177 7.021177 6.9439216 6.9439216 6.866667 6.866667 6.789412 6.789412 6.7121572 6.7121572 6.634902 6.634902 6.557647 6.557647 6.4803925 6.4803925 6.4031377 6.4031377 6.4031377 6.3258824 6.3258824 6.2486277 6.2486277 6.171373 6.171373 6.171373 6.094118 6.094118 6.016863 6.016863 6.016863 5.939608 5.939608 5.939608 5.939608 5.939608 5.939608 5.939608 5.939608 5.8623533 5.8623533 5.8623533 5.8623533 5.8623533 5.8623533 5.8623533 5.8623533 5.8623533 5.8623533 5.8623533 5.939608 5.939608 5.939608 5.939608 5.939608 5.939608 5.939608 5.939608 5.939608 5.939608 5.939608 5.939608 5.939608 5.939608 5.939608
16.214512 16.214512 16.214512 16.291765 16.291765 16.36902 16.36902 16.36902 16.446276 16.446276 16.523531 16.523531 16.523531 16.600786 16.600786 16.600786 16.678041 16.678041 16.755295 16.755295 16.83255 16.83255 16.83255 16.909805 16.909805 16.98706 16.98706 16.98706 17.064316 17.064316 17.14157 17.14157 17.218824 16.291765 16.291765 16.291765 16.291765 16.291765 16.214512 16.291765 16.291765 16.36902 16.36902 16.36902 16.446276 16.446276 16.446276 16.523531 16.523531 16.600786 16.600786 16.600786 16.678041 16.678041 16.755295 16.755295 16.755295 16.83255 16.83255 16.909805 16.909805 16.98706 16.98706 17.064316 17.064316 17.14157 17.14157 17.218824 17.218824 17.218824 17.29608 17.373335 17.373335 17.45059 17.45059 17.527845 17.527845 17.527845 17.605099 17.605099 17.682354 17.75961 17.75961 17.836864 17.836864 17.91412 17.91412 17.991373 17.991373 18.068628 18.068628 18.145884 14.746667 14.437648 14.205883 13.974118 13.665098 13.587844 13.510589 13.510589 13.433333 13.510589 13.510589 11.810981 11.579216 11.579216 11.579216 11.579216 11.579216 11.656471 11.656471 11.656471 11.656471 11.656471 11.501962 11.347451 11.115686 11.115686 11.038432 10.961177 10.961177 11.038432 11.038432 11.038432 11.038432 11.115686 11.115686 11.115686 11.192942 11.192942 11.192942 11.270197 11.270197 11.270197 11.347451 11.347451 11.347451 11.424706 11.424706 11.424706 11.501962 11.501962 11.501962 11.579216 11.579216 11.579216 11.656471 11.656471 11.656471 11.733726 11.733726 11.810981 11.810981 11.810981 11.888236 11.888236 11.888236 11.96549 11.96549 11.96549 12.042746 12.042746 12.042746 12.120001 12.120001 12.120001 12.197255 12.197255 12.120001 12.042746 3.7764707 3.7764707 3.7764707 3.8537257 3.8537257 3.8537257 3.8537257 3.8537257 3.9309804 3.9309804 3.9309804 11.501962 11.424706 11.424706 11.424706 11.347451 11.347451 11.347451 11.347451 11.347451 11.347451 11.347451 11.347451 11.347451 11.347451 11.424706 11.347451 11.270197 11.270197 11.192942 11.115686 11.115686 11.038432 10.961177 10.961177 10.883923 10.806667 10.729412 10.729412 10.652158 10.652158 10.574903 10.497647 10.497647 10.420393 10.343138 10.343138 7.870981 7.716471 7.639216 7.561961 7.407451 7.3301964 7.252941 7.252941 7.252941 7.252941 7.252941 7.252941 7.252941 7.252941 7.252941 7.252941 7.252941 7.252941 7.252941 7.252941 7.252941 7.252941 7.252941 7.3301964 7.3301964 7.3301964 7.3301964 7.3301964 7.3301964 7.3301964 7.3301964 7.3301964 7.252941 7.1756864 7.1756864 7.0984316 7.0984316 7.021177 7.021177 6.9439216 6.9439216 6.866667 6.866667 6.789412 6.789412 6.7121572 6.7121572 6.634902 6.634902 6.557647 6.557647 6.4803925 6.4803925 6.4031377 6.4031377 6.4031377 6.3258824 6.3258824 6.2486277 6.2486277 6.171373 6.171373 6.171373 6.094118 6.094118 6.016863 6.016863 6.016863 5.939608 5.939608 5.939608 5.939608 5.939608 5.939608 5.8623533 5.8623533 5.8623533 5.8623533 5.8623533 5.8623533 5.8623533 5.8623533 5.8623533 5.8623533 5.8623533 5.8623533 5.8623533 5.8623533 5.8623533 5.8623533 5.8623533 5.8623533 5.8623533 5.8623533 5.939608 5.939608 5.939608 5.939608 5.939608 5.939608 5.939608 5.939608
16.214512 16.214512 16.214512 16.291765 16.291765 16.36902 16.36902 16.36902 16.446276 16.446276 16.523531 16.523531 16.523531 16.600786 16.600786 16.678041 16.678041 16.678041 16.755295 16.755295 16.83255 16.83255 16.83255 16.909805 16.909805 16.98706 16.98706 17.064316 17.064316 17.064316 17.14157 17.14157 16.214512 16.291765 16.214512 16.214512 16.214512 16.214512 16.214512 16.291765 16.291765 16.36902 16.36902 16.36902 16.446276 16.446276 16.446276 16.523531 16.523531 16.523531 16.600786 16.600786 16.678041 16.678041 16.755295 16.755295 16.755295 16.83255 16.83255 16.909805 16.909805 16.98706 16.98706 17.064316 17.064316 17.14157 17.14157 17.218824 17.218824 17.218824 17.29608 17.29608 17.373335 17.45059 17.45059 17.527845 17.527845 17.527845 17.605099 17.605099 17.682354 17.75961 17.75961 17.836864 17.836864 17.91412 17.91412 17.991373 17.991373 18.068628 18.068628 18.145884 14.746667 14.514902 14.283137 14.051373 13.665098 13.587844 13.510589 13.510589 13.433333 13.510589 11.888236 11.501962 11.501962 11.501962 11.579216 11.579216 11.579216 11.579216 11.656471 11.656471 11.656471 11.579216 11.347451 11.192942 11.115686 11.038432 11.038432 10.961177 10.961177 10.961177 11.038432 11.038432 11.038432 11.038432 11.115686 11.115686 11.115686 11.192942 11.192942 11.192942 11.270197 11.270197 11.270197 11.347451 11.347451 11.347451 11.424706 11.424706 11.424706 11.501962 11.501962 11.501962 11.579216 11.579216 11.579216 11.656471 11.656471 11.733726 11.733726 11.733726 11.810981 11.810981 11.810981 11.888236 11.888236 11.888236 11.96549 11.96549 12.042746 12.042746 12.042746 12.120001 12.120001 12.120001 12.120001 12.042746 11.96549 11.888236 11.888236 3.8537257 3.8537257 3.8537257 3.8537257 3.8537257 3.8537257 11.579216 11.501962 11.501962 11.424706 11.424706 11.424706 11.347451 11.347451 11.270197 11.270197 11.270197 11.270197 11.270197 11.270197 11.347451 11.347451 11.347451 11.347451 11.347451 11.347451 11.270197 11.192942 11.192942 11.115686 11.038432 10.961177 10.883923 10.883923 10.806667 10.806667 10.729412 10.652158 10.652158 10.574903 10.574903 10.497647 10.420393 10.420393 10.343138 10.2658825 10.2658825 7.716471 7.639216 7.484706 7.407451 7.3301964 7.252941 7.252941 7.252941 7.252941 7.252941 7.252941 7.252941 7.252941 7.252941 7.252941 7.252941 7.252941 7.252941 7.252941 7.252941 7.252941 7.252941 7.3301964 7.3301964 7.3301964 7.3301964 7.3301964 7.3301964 7.3301964 7.3301964 7.3301964 7.252941 7.1756864 7.1756864 7.0984316 7.0984316 7.021177 7.021177 6.9439216 6.9439216 6.866667 6.866667 6.789412 6.789412 6.7121572 6.7121572 6.634902 6.634902 6.557647 6.557647 6.4803925 6.4803925 6.4031377 6.4031377 6.4031377 6.3258824 6.3258824 6.2486277 6.2486277 6.171373 6.171373 6.171373 6.094118 6.094118 6.016863 6.016863 6.016863 5.939608 5.939608 5.939608 5.8623533 5.8623533 5.8623533 5.8623533 5.8623533 5.8623533 5.8623533 5.8623533 5.8623533 5.8623533 5.8623533 5.8623533 5.8623533 5.8623533 5.8623533 5.8623533 5.8623533 5.8623533 5.8623533 5.8623533 5.8623533 5.8623533 5.8623533 5.8623533 5.8623533 5.8623533 5.8623533 5.8623533 5.8623533 5.8623533 5.939608
16.214512 16.214512 16.214512 16.291765 16.291765 16.36902 16.36902 16.36902 16.446276 16.446276 16.523531 16.523531 16.523531 16.600786 16.600786 16.678041 16.678041 16.678041 16.755295 16.755295 16.83255 16.83255 16.83255 16.909805 16.909805 16.98706 16.98706 17.064316 17.064316 17.064316 17.14157 16.214512 16.214512 16.214512 16.214512 16.214512 16.214512 16.214512 16.214512 16.291765 16.291765 16.36902 16.36902 16.36902 16.446276 16.446276 16.446276 16.523531 16.523531 16.523531 16.600786 16.600786 16.678041 16.678041 16.755295 16.755295 16.755295 16.83255 16.83255 16.909805 16.909805 16.98706 16.98706 17.064316 17.064316 17.14157 17.14157 17.218824 17.218824 17.218824 17.29608 17.29608 17.373335 17.45059 17.45059 17.45059 17.527845 17.527845 17.605099 17.605099 17.682354 17.75961 17.75961 17.836864 17.836864 17.91412 17.91412 17.991373 17.991373 18.068628 18.068628 18.145884 14.746667 14.514902 14.360393 14.128628 13.819609 13.587844 13.587844 13.510589 13.433333 13.510589 11.424706 11.501962 11.501962 11.501962 11.501962 11.579216 11.579216 11.579216 11.579216 11.579216 11.656471 11.424706 11.270197 11.115686 11.038432 11.038432 10.961177 10.883923 10.961177 10.961177 10.961177 11.038432 11.038432 11.038432 11.115686 11.115686 11.115686 11.115686 11.192942 11.192942 11.192942 11.270197 11.270197 11.270197 11.347451 11.347451 11.424706 11.424706 11.424706 11.424706 11.501962 11.501962 11.579216 11.579216 11.579216 11.656471 11.656471 11.656471 11.733726 11.733726 11.733726 11.810981 11.810981 11.888236 11.888236 11.888236 11.96549 11.96549 11.96549 12.042746 12.042746 12.120001 12.120001 12.042746 12.042746 11.96549 11.888236 11.810981 11.733726 11.656471 11.656471 11.579216 11.579216 11.579216 11.501962 11.501962 11.424706 11.424706 11.424706 11.347451 11.347451 11.270197 11.270197 11.192942 11.192942 11.192942 11.270197 11.270197 11.270197 11.270197 11.270197 11.270197 11.270197 11.347451 11.270197 11.270197 11.192942 11.115686 11.038432 10.961177 10.883923 10.806667 10.806667 10.729412 10.729412 10.729412 10.652158 10.652158 10.574903 10.497647 10.497647 10.420393 10.343138 10.343138 10.2658825 10.2658825 7.716471 7.639216 7.484706 7.407451 7.3301964 7.252941 7.252941 7.252941 7.252941 7.252941 7.252941 7.252941 7.252941 7.252941 7.252941 7.252941 7.252941 7.252941 7.252941 7.252941 7.252941 7.3301964 7.3301964 7.3301964 7.3301964 7.3301964 7.3301964 7.3301964 7.3301964 7.3301964 7.3301964 7.252941 7.1756864 7.1756864 7.0984316 7.0984316 7.021177 7.021177 6.9439216 6.9439216 6.866667 6.866667 6.789412 6.789412 6.7121572 6.7121572 6.634902 6.634902 6.557647 6.557647 6.4803925 6.4803925 6.4031377 6.4031377 6.3258824 6.3258824 6.3258824 6.2486277 6.2486277 6.171373 6.171373 6.171373 6.094118 6.094118 6.016863 6.016863 6.016863 5.939608 5.939608 5.8623533 5.8623533 5.8623533 5.8623533 5.8623533 5.8623533 5.8623533 5.785098 5.785098 5.785098 5.785098 5.785098 5.785098 5.785098 5.8623533 5.8623533 5.8623533 5.8623533 5.8623533 5.8623533 5.8623533 5.8623533 5.8623533 5.8623533 5.8623533 5.8623533 5.8623533 5.8623533 5.8623533 5.8623533 5.8623533 5.8623533
16.214512 16.214512 16.214512 16.291765 16.291765 16.36902 16.36902 16.36902 16.446276 16.446276 16.523531 16.523531 16.523531 16.600786 16.600786 16.678041 16.678041 16.678041 16.755295 16.755295 16.83255 16.83255 16.83255 16.909805 16.909805 16.98706 16.98706 16.98706 17.064316 17.064316 16.214512 16.214512 16.214512 16.214512 16.214512 16.214512 16.214512 16.214512 16.291765 16.291765 16.291765 16.36902 16.36902 16.36902 16.446276 16.446276 16.446276 16.523531 16.523531 16.523531 16.600786 16.600786 16.678041 16.678041 16.755295 16.755295 16.83255 16.83255 16.83255 16.909805 16.909805 16.98706 16.98706 17.064316 17.064316 17.14157 17.14157 17.218824 17.218824 17.218824 17.29608 17.29608 17.373335 17.45059 17.45059 17.45059 17.527845 17.527845 17.605099 17.605099 17.682354 17.682354 17.75961 17.75961 17.836864 17.91412 17.91412 17.991373 17.991373 18.068628 18.068628 18.145884 14.823922 14.592157 14.360393 14.205883 13.974118 13.587844 13.587844 13.510589 13.433333 12.042746 11.424706 11.424706 11.424706 11.501962 11.501962 11.501962 11.501962 11.579216 11.579216 11.579216 11.501962 11.347451 11.115686 11.115686 11.038432 10.961177 10.961177 10.883923 10.961177 10.961177 10.961177 10.961177 11.038432 11.038432 11.038432 11.115686 11.115686 11.115686 11.115686 11.192942 11.192942 11.270197 11.270197 11.270197 11.347451 11.347451 11.347451 11.424706 11.424706 11.424706 11.501962 11.501962 11.501962 11.579216 11.579216 11.579216 11.656471 11.656471 11.656471 11.733726 11.733726 11.810981 11.810981 11.810981 11.888236 11.888236 11.888236 11.96549 11.96549 12.042746 12.042746 12.042746 12.042746 11.96549 11.888236 11.810981 11.733726 11.656471 11.656471 11.579216 11.579216 11.501962 11.501962 11.501962 11.424706 11.424706 11.347451 11.347451 11.270197 11.270197 11.192942 11.192942 11.192942 11.192942 11.192942 11.192942 11.192942 11.192942 11.192942 11.192942 11.270197 11.270197 11.270197 11.270197 11.192942 11.115686 11.038432 10.961177 10.883923 10.806667 10.806667 10.729412 10.729412 10.729412 10.729412 10.729412 10.652158 10.574903 10.574903 10.497647 10.420393 10.420393 10.343138 10.2658825 10.2658825 10.188628 10.188628 7.561961 7.484706 7.407451 7.252941 7.252941 7.252941 7.252941 7.252941 7.252941 7.252941 7.252941 7.252941 7.252941 7.252941 7.252941 7.252941 7.252941 7.252941 7.252941 7.3301964 7.3301964 7.3301964 7.3301964 7.3301964 7.3301964 7.3301964 7.3301964 7.3301964 7.3301964 7.3301964 7.252941 7.1756864 7.1756864 7.0984316 7.0984316 7.021177 7.021177 6.9439216 6.9439216 6.866667 6.866667 6.789412 6.789412 6.7121572 6.7121572 6.634902 6.634902 6.557647 6.557647 6.4803925 6.4803925 6.4031377 6.4031377 6.3258824 6.3258824 6.3258824 6.2486277 6.2486277 6.171373 6.171373 6.171373 6.094118 6.094118 6.016863 6.016863 6.016863 5.939608 5.939608 5.8623533 5.8623533 5.8623533 5.8623533 5.8623533 5.785098 5.785098 5.785098 5.785098 5.785098 5.785098 5.785098 5.785098 5.785098 5.785098 5.785098 5.785098 5.785098 5.785098 5.785098 5.785098 5.8623533 5.8623533 5.8623533 5.8623533 5.8623533 5.8623533 5.8623533 5.8623533 5.8623533 5.8623533 5.8623533
16.214512 16.214512 16.214512 16.291765 16.291765 16.36902 16.36902 16.36902 16.446276 16.446276 16.523531 16.523531 16.523531 16.600786 16.600786 16.678041 16.678041 16.678041 16.755295 16.755295 16.83255 16.83255 16.83255 16.909805 16.909805 16.98706 16.98706 16.98706 17.064316 16.137257 16.214512 16.214512 16.214512 16.214512 16.214512 16.214512 16.214512 16.214512 16.291765 16.291765 16.36902 16.36902 16.36902 16.446276 16.446276 16.446276 16.523531 16.523531 16.523531 16.600786 16.600786 16.600786 16.678041 16.678041 16.755295 16.755295 16.83255 16.83255 16.909805 16.909805 16.909805 16.98706 16.98706 17.064316 17.064316 17.14157 17.14157 17.218824 17.218824 17.218824 17.29608 17.29608 17.373335 17.45059 17.45059 17.45059 17.527845 17.527845 17.605099 17.605099 17.682354 17.682354 17.75961 17.75961 17.836864 17.836864 17.91412 17.91412 17.991373 18.068628 14.901176 14.901176 14.823922 14.592157 14.437648 14.205883 14.051373 13.742353 13.587844 13.510589 13.433333 11.424706 11.424706 11.424706 11.424706 11.424706 11.424706 11.501962 11.501962 11.501962 11.501962 11.579216 11.347451 11.192942 11.115686 11.038432 10.961177 10.961177 10.883923 10.883923 10.883923 10.961177 10.961177 10.961177 11.038432 11.038432 11.038432 11.038432 11.115686 11.115686 11.115686 11.192942 11.192942 11.192942 11.270197 11.270197 11.270197 11.347451 11.347451 11.347451 11.424706 11.424706 11.424706 11.501962 11.501962 11.579216 11.579216 11.579216 11.656471 11.656471 11.656471 11.733726 11.733726 11.733726 11.810981 11.810981 11.810981 11.888236 11.888236 11.96549 11.96549 11.96549 12.042746 11.96549 11.888236 11.810981 11.733726 11.733726 11.656471 11.579216 11.579216 11.501962 11.501962 11.424706 11.424706 11.424706 11.347451 11.347451 11.270197 11.270197 11.192942 11.192942 11.192942 11.115686 11.115686 11.115686 11.115686 11.115686 11.192942 11.192942 11.192942 11.192942 11.192942 11.192942 11.192942 11.115686 11.038432 10.961177 10.883923 10.806667 10.806667 10.729412 10.729412 10.652158 10.652158 10.652158 10.652158 10.652158 10.652158 10.574903 10.497647 10.497647 10.420393 10.343138 10.343138 10.2658825 10.2658825 10.188628 10.111373 10.111373 7.484706 7.3301964 7.252941 7.252941 7.252941 7.252941 7.252941 7.252941 7.252941 7.252941 7.252941 7.252941 7.252941 7.252941 7.252941 7.252941 7.252941 7.252941 7.3301964 7.3301964 7.3301964 7.3301964 7.3301964 7.3301964 7.3301964 7.3301964 7.3301964 7.3301964 7.252941 7.252941 7.1756864 7.1756864 7.0984316 7.0984316 7.021177 7.021177 6.9439216 6.9439216 6.866667 6.866667 6.789412 6.789412 6.7121572 6.7121572 6.634902 6.634902 6.557647 6.557647 6.4803925 6.4803925 6.4031377 6.4031377 6.3258824 6.3258824 6.3258824 6.2486277 6.2486277 6.171373 6.171373 6.171373 6.094118 6.094118 6.016863 6.016863 6.016863 5.939608 5.939608 5.8623533 5.8623533 5.8623533 5.785098 5.785098 5.785098 5.785098 5.785098 5.785098 5.785098 5.785098 5.785098 5.785098 5.785098 5.785098 5.785098 5.785098 5.785098 5.785098 5.785098 5.785098 5.785098 5.785098 5.785098 5.785098 5.785098 5.785098 5.785098 5.8623533 5.8623533 5.8623533 5.8623533
16.137257 16.214512 16.214512 16.291765 16.291765 16.36902 16.36902 16.36902 16.446276 16.446276 16.523531 16.523531 16.523531 16.600786 16.600786 16.678041 16.678041 16.678041 16.755295 16.755295 16.83255 16.83255 16.83255 16.909805 16.909805 16.98706 16.98706 16.98706 17.064316 17.064316 16.214512 16.214512 16.214512 16.214512 16.214512 16.214512 16.214512 16.291765 16.291765 16.36902 16.36902 16.36902 16.36902 16.446276 16.446276 16.523531 16.523531 16.523531 16.600786 16.600786 16.600786 16.678041 16.678041 16.755295 16.755295 16.755295 16.83255 16.83255 16.909805 16.909805 16.98706 16.98706 16.98706 17.064316 17.064316 17.14157 17.14157 17.218824 17.218824 17.29608 17.29608 17.373335 17.373335 17.45059 17.45059 17.45059 17.527845 17.527845 17.605099 17.605099 17.682354 17.682354 17.75961 17.75961 17.836864 17.836864 17.91412 17.91412 17.991373 14.823922 14.823922 14.823922 14.746667 14.669412 14.437648 14.283137 14.051373 13.819609 13.587844 13.510589 12.197255 11.424706 11.424706 11.424706 11.424706 11.424706 11.424706 11.424706 11.424706 11.501962 11.501962 11.424706 11.270197 11.115686 11.038432 11.038432 10.961177 10.883923 10.883923 10.883923 10.883923 10.883923 10.961177 10.961177 10.961177 11.038432 11.038432 11.038432 11.115686 11.115686 11.115686 11.115686 11.192942 11.192942 11.192942 11.270197 11.270197 11.347451 11.347451 11.347451 11.424706 11.424706 11.424706 11.501962 11.501962 11.501962 11.579216 11.579216 11.579216 11.656471 11.656471 11.656471 11.733726 11.733726 11.810981 11.810981 11.810981 11.888236 11.888236 11.888236 11.96549 11.96549 11.888236 11.888236 11.810981 11.733726 11.656471 11.579216 11.579216 11.501962 11.501962 11.424706 11.424706 11.424706 11.347451 11.347451 11.270197 11.270197 11.192942 11.192942 11.115686 11.115686 11.115686 11.115686 11.115686 11.115686 11.115686 11.115686 11.115686 11.115686 11.115686 11.115686 11.192942 11.192942 11.115686 11.038432 10.961177 10.883923 10.806667 10.729412 10.729412 10.652158 10.652158 10.574903 10.574903 10.574903 10.574903 10.574903 10.574903 10.574903 10.497647 10.420393 10.420393 10.343138 10.2658825 10.2658825 10.188628 10.188628 10.111373 10.111373 7.484706 7.3301964 7.252941 7.252941 7.252941 7.252941 7.252941 7.252941 7.252941 7.252941 7.252941 7.252941 7.252941 7.252941 7.252941 7.252941 7.252941 7.3301964 7.3301964 7.3301964 7.3301964 7.3301964 7.3301964 7.3301964 7.3301964 7.3301964 7.3301964 7.3301964 7.252941 7.252941 7.1756864 7.1756864 7.0984316 7.0984316 7.021177 7.021177 6.9439216 6.9439216 6.866667 6.866667 6.789412 6.789412 6.7121572 6.7121572 6.634902 6.634902 6.557647 6.557647 6.4803925 6.4803925 6.4031377 6.4031377 6.3258824 6.3258824 6.3258824 6.2486277 6.2486277 6.171373 6.171373 6.094118 6.094118 6.094118 6.016863 6.016863 6.016863 5.939608 5.939608 5.8623533 5.8623533 5.8623533 5.785098 5.785098 5.785098 5.785098 5.785098 5.785098 5.785098 5.785098 5.785098 5.785098 5.785098 5.785098 5.785098 5.785098 5.785098 5.785098 5.785098 5.785098 5.785098 5.785098 5.785098 5.785098 5.785098 5.785098 5.785098 5.785098 5.785098 5.8623533 5.8623533
16.137257 16.214512 16.214512 16.291765 16.291765 16.36902 16.36902 16.36902 16.446276 16.446276 16.523531 16.523531 16.523531 16.600786 16.600786 16.600786 16.678041 16.678041 16.755295 16.755295 16.83255 16.83255 16.83255 16.909805 16.909805 16.909805 16.98706 16.98706 17.064316 17.064316 17.14157 16.214512 16.214512 16.214512 16.214512 16.214512 16.291765 16.291765 16.291765 16.36902 16.36902 16.36902 16.446276 16.446276 16.523531 16.523531 16.523531 16.600786 16.600786 16.600786 16.678041 16.678041 16.678041 16.755295 16.755295 16.83255 16.83255 16.909805 16.909805 16.909805 16.98706 16.98706 17.064316 17.064316 17.14157 17.14157 17.14157 17.218824 17.218824 17.29608 17.29608 17.373335 17.373335 17.45059 17.45059 17.527845 17.527845 17.605099 17.605099 17.605099 17.682354 17.682354 17.75961 17.75961 17.836864 17.836864 17.91412 14.823922 14.746667 14.669412 14.669412 14.669412 14.669412 14.669412 14.514902 14.283137 14.128628 13.896863 13.587844 13.510589 11.501962 11.424706 11.424706 11.347451 11.347451 11.424706 11.424706 11.424706 11.424706 11.424706 11.424706 11.347451 11.115686 11.038432 11.038432 10.961177 10.961177 10.883923 10.806667 10.883923 10.883923 10.883923 10.961177 10.961177 10.961177 10.961177 11.038432 11.038432 11.038432 11.115686 11.115686 11.115686 11.192942 11.192942 11.192942 11.270197 11.270197 11.270197 11.347451 11.347451 11.347451 11.424706 11.424706 11.424706 11.501962 11.501962 11.501962 11.579216 11.579216 11.579216 11.656471 11.656471 11.733726 11.733726 11.733726 11.810981 11.810981 11.810981 11.888236 11.888236 11.888236 11.888236 11.810981 11.733726 11.656471 11.579216 11.579216 11.501962 11.501962 11.424706 11.424706 11.424706 11.347451 11.347451 11.270197 11.270197 11.192942 11.192942 11.115686 11.115686 11.115686 11.038432 11.038432 11.038432 11.038432 11.038432 11.038432 11.038432 11.115686 11.115686 11.115686 11.115686 11.115686 11.038432 10.961177 10.883923 10.806667 10.729412 10.729412 10.652158 10.652158 10.574903 10.574903 10.574903 10.574903 10.574903 10.574903 10.574903 10.574903 10.497647 10.497647 10.420393 10.343138 10.343138 10.2658825 10.2658825 10.188628 10.111373 10.111373 10.034119 10.034119 7.3301964 7.252941 7.252941 7.252941 7.252941 7.252941 7.252941 7.252941 7.252941 7.252941 7.252941 7.252941 7.252941 7.252941 7.252941 7.3301964 7.3301964 7.3301964 7.3301964 7.3301964 7.3301964 7.3301964 7.3301964 7.3301964 7.3301964 7.3301964 7.3301964 7.252941 7.252941 7.1756864 7.1756864 7.0984316 7.0984316 7.021177 7.021177 6.9439216 6.9439216 6.866667 6.789412 6.789412 6.789412 6.7121572 6.7121572 6.634902 6.634902 6.557647 6.557647 6.4803925 6.4803925 6.4031377 6.4031377 6.3258824 6.3258824 6.3258824 6.2486277 6.2486277 6.171373 6.171373 6.094118 6.094118 6.094118 6.016863 6.016863 6.016863 5.939608 5.939608 5.8623533 5.8623533 5.8623533 5.785098 5.785098 5.785098 5.785098 5.785098 5.7078433 5.7078433 5.7078433 5.7078433 5.7078433 5.7078433 5.785098 5.785098 5.785098 5.785098 5.785098 5.785098 5.785098 5.785098 5.785098 5.785098 5.785098 5.785098 5.785098 5.785098 5.785098 5.785098 5.8623533 5.8623533
16.137257 16.214512 16.214512 16.291765 16.291765 16.291765 16.36902 16.36902 16.36902 16.446276 16.446276 16.523531 16.523531 16.600786 16.600786 16.600786 16.678041 16.678041 16.755295 16.755295 16.755295 16.83255 16.83255 16.909805 16.909805 16.909805 16.98706 16.98706 17.064316 17.064316 17.14157 17.14157 16.214512 16.214512 16.214512 16.214512 16.291765 16.291765 16.36902 16.36902 16.36902 16.446276 16.446276 16.446276 16.523531 16.523531 16.523531 16.600786 16.600786 16.678041 16.678041 16.678041 16.755295 16.755295 16.83255 16.83255 16.83255 16.909805 16.909805 16.98706 16.98706 16.98706 17.064316 17.064316 17.14157 17.14157 17.218824 17.218824 17.218824 17.29608 17.29608 17.373335 17.373335 17.45059 17.45059 17.527845 17.527845 17.605099 17.605099 17.605099 17.682354 17.682354 17.75961 17.75961 17.836864 17.836864 14.669412 14.592157 14.592157 14.592157 14.592157 14.592157 14.592157 14.514902 14.514902 14.360393 14.205883 13.974118 13.742353 12.351766 11.501962 11.424706 11.347451 11.347451 11.347451 11.347451 11.347451 11.424706 11.424706 11.424706 11.347451 11.192942 11.115686 11.038432 10.961177 10.961177 10.883923 10.806667 10.806667 10.806667 10.883923 10.883923 10.883923 10.961177 10.961177 10.961177 11.038432 11.038432 11.038432 11.038432 11.115686 11.115686 11.115686 11.192942 11.192942 11.192942 11.270197 11.270197 11.270197 11.347451 11.347451 11.424706 11.424706 11.424706 11.424706 11.501962 11.501962 11.579216 11.579216 11.579216 11.656471 11.656471 11.656471 11.733726 11.733726 11.733726 11.810981 11.810981 11.810981 11.888236 11.810981 11.733726 11.656471 11.579216 11.579216 11.501962 11.501962 11.424706 11.424706 11.347451 11.347451 11.347451 11.270197 11.270197 11.192942 11.192942 11.115686 11.115686 11.038432 11.038432 11.038432 11.038432 10.961177 11.038432 11.038432 11.038432 11.038432 11.038432 11.038432 11.038432 11.038432 11.038432 11.038432 10.883923 10.806667 10.729412 10.729412 10.652158 10.652158 10.574903 10.574903 10.497647 10.497647 10.497647 10.497647 10.497647 10.497647 10.497647 10.497647 10.420393 10.420393 10.420393 10.343138 10.2658825 10.2658825 10.188628 10.188628 10.111373 10.111373 10.034119 9.956863 7.3301964 7.252941 7.252941 7.252941 7.252941 7.252941 7.252941 7.252941 7.252941 7.252941 7.252941 7.252941 7.252941 7.252941 7.252941 7.3301964 7.3301964 7.3301964 7.3301964 7.3301964 7.3301964 7.3301964 7.3301964 7.3301964 7.3301964 7.3301964 7.3301964 7.252941 7.252941 7.1756864 7.1756864 7.0984316 7.0984316 7.021177 7.021177 6.9439216 6.9439216 6.866667 6.789412 6.789412 6.789412 6.7121572 6.7121572 6.634902 6.634902 6.557647 6.557647 6.4803925 6.4803925 6.4031377 6.4031377 6.3258824 6.3258824 6.3258824 6.2486277 6.2486277 6.171373 6.171373 6.094118 6.094118 6.094118 6.016863 6.016863 6.016863 5.939608 5.939608 5.8623533 5.8623533 5.8623533 5.785098 5.785098 5.785098 5.7078433 5.7078433 5.7078433 5.7078433 5.7078433 5.7078433 5.7078433 5.7078433 5.7078433 5.7078433 5.7078433 5.7078433 5.7078433 5.7078433 5.7078433 5.785098 5.785098 5.785098 5.785098 5.785098 5.785098 5.785098 5.785098 5.8623533 5.8623533 5.8623533
16.137257 16.214512 16.214512 16.214512 16.291765 16.291765 16.36902 16.36902 16.36902 16.446276 16.446276 16.523531 16.523531 16.523531 16.600786 16.600786 16.678041 16.678041 16.678041 16.755295 16.755295 16.83255 16.83255 16.909805 16.909805 16.909805 16.98706 16.98706 17.064316 17.064316 17.064316 17.14157 16.36902 16.214512 16.214512 16.291765 16.291765 16.36902 16.36902 16.36902 16.36902 16.446276 16.446276 16.523531 16.523531 16.523531 16.600786 16.600786 16.600786 16.678041 16.678041 16.755295 16.755295 16.755295 16.83255 16.83255 16.909805 16.909805 16.909805 16.98706 16.98706 17.064316 17.064316 17.14157 17.14157 17.14157 17.218824 17.218824 17.29608 17.29608 17.373335 17.373335 17.45059 17.45059 17.45059 17.527845 17.527845 17.605099 17.605099 17.605099 17.682354 17.682354 17.75961 17.75961 14.669412 14.592157 14.514902 14.514902 14.514902 14.514902 14.437648 14.437648 14.437648 14.437648 14.437648 14.437648 14.205883 13.974118 13.819609 11.501962 11.424706 11.424706 11.347451 11.270197 11.347451 11.347451 11.347451 11.347451 11.347451 11.424706 11.270197 11.115686 11.038432 11.038432 10.961177 10.883923 10.883923 10.806667 10.806667 10.806667 10.806667 10.883923 10.883923 10.883923 10.961177 10.961177 10.961177 11.038432 11.038432 11.038432 11.115686 11.115686 11.115686 11.115686 11.192942 11.192942 11.270197 11.270197 11.270197 11.347451 11.347451 11.347451 11.424706 11.424706 11.424706 11.501962 11.501962 11.501962 11.579216 11.579216 11.579216 11.656471 11.656471 11.656471 11.733726 11.733726 11.733726 11.810981 11.810981 11.733726 11.733726 11.656471 11.579216 11.501962 11.501962 11.424706 11.424706 11.347451 11.347451 11.347451 11.270197 11.270197 11.192942 11.192942 11.115686 11.115686 11.038432 11.038432 11.038432 10.961177 10.961177 10.961177 10.961177 10.961177 10.961177 10.961177 10.961177 11.038432 11.038432 11.038432 11.038432 10.961177 10.883923 10.806667 10.729412 10.652158 10.652158 10.574903 10.574903 10.497647 10.497647 10.497647 10.497647 10.497647 10.497647 10.497647 10.497647 10.420393 10.420393 10.343138 10.343138 10.343138 10.2658825 10.2658825 10.2658825 10.188628 10.188628 10.111373 10.034119 10.034119 9.956863 9.956863 7.252941 7.252941 7.252941 7.252941 7.252941 7.252941 7.252941 7.252941 7.252941 7.252941 7.252941 7.252941 7.252941 7.3301964 7.3301964 7.3301964 7.3301964 7.3301964 7.3301964 7.3301964 7.3301964 7.3301964 7.3301964 7.3301964 7.3301964 7.3301964 7.252941 7.252941 7.1756864 7.1756864 7.0984316 7.0984316 7.021177 7.021177 6.9439216 6.9439216 6.866667 6.789412 6.789412 6.789412 6.7121572 6.7121572 6.634902 6.557647 6.557647 6.557647 6.4803925 6.4803925 6.4031377 6.4031377 6.3258824 6.3258824 6.3258824 6.2486277 6.2486277 6.171373 6.171373 6.094118 6.094118 6.094118 6.016863 6.016863 6.016863 5.939608 5.939608 5.8623533 5.8623533 5.8623533 5.785098 5.785098 5.785098 5.7078433 5.7078433 5.7078433 5.7078433 5.7078433 5.7078433 5.7078433 5.7078433 5.7078433 5.7078433 5.7078433 5.7078433 5.7078433 5.7078433 5.7078433 5.7078433 5.785098 5.785098 5.785098 5.785098 5.785098 5.785098 5.785098 5.8623533 5.8623533 5.8623533
16.137257 16.214512 16.214512 16.214512 16.291765 16.291765 16.36902 16.36902 16.36902 16.446276 16.446276 16.523531 16.523531 16.523531 16.600786 16.600786 16.678041 16.678041 16.678041 16.755295 16.755295 16.83255 16.83255 16.83255 16.909805 16.909805 16.98706 16.98706 16.98706 17.064316 17.064316 16.291765 16.291765 16.291765 16.291765 16.291765 16.291765 16.36902 16.36902 16.36902 16.446276 16.446276 16.523531 16.523531 16.523531 16.600786 16.600786 16.600786 16.678041 16.678041 16.755295 16.755295 16.755295 16.755295 16.83255 16.83255 16.909805 16.909805 16.909805 16.98706 16.98706 17.064316 17.064316 17.14157 17.14157 17.14157 17.218824 17.218824 17.29608 17.29608 17.373335 17.373335 17.45059 17.45059 17.45059 17.527845 17.527845 17.527845 17.605099 17.605099 17.682354 17.682354 17.75961 14.514902 14.437648 14.437648 14.437648 14.437648 14.360393 14.360393 14.360393 14.360393 14.360393 14.360393 14.360393 14.360393 14.283137 14.051373 13.896863 11.501962 11.424706 11.424706 11.347451 11.270197 11.270197 11.270197 11.347451 11.347451 11.347451 11.347451 11.115686 11.038432 11.038432 10.961177 10.883923 10.883923 10.806667 10.806667 10.806667 10.806667 10.806667 10.883923 10.883923 10.883923 10.961177 10.961177 10.961177 11.038432 11.038432 11.038432 11.038432 11.115686 11.115686 11.115686 11.192942 11.192942 11.192942 11.270197 11.270197 11.270197 11.347451 11.347451 11.347451 11.424706 11.424706 11.424706 11.501962 11.501962 11.501962 11.579216 11.579216 11.579216 11.656471 11.656471 11.656471 11.733726 11.733726 11.733726 11.733726 11.656471 11.579216 11.501962 11.424706 11.424706 11.424706 11.347451 11.347451 11.270197 11.270197 11.270197 11.192942 11.192942 11.115686 11.115686 11.038432 11.038432 10.961177 10.961177 10.961177 10.961177 10.883923 10.883923 10.883923 10.961177 10.961177 10.961177 10.961177 10.961177 10.961177 10.961177 10.883923 10.806667 10.729412 10.652158 10.652158 10.574903 10.574903 10.497647 10.497647 10.497647 10.420393 10.420393 10.420393 10.420393 10.420393 10.420393 10.420393 10.343138 10.343138 10.2658825 10.2658825 10.2658825 10.2658825 10.188628 10.188628 10.188628 10.111373 10.111373 10.034119 9.956863 9.956863 9.879608 9.879608 7.252941 7.252941 7.252941 7.252941 7.252941 7.252941 7.252941 7.252941 7.252941 7.252941 7.252941 7.3301964 7.3301964 7.3301964 7.3301964 7.3301964 7.3301964 7.3301964 7.3301964 7.3301964 7.3301964 7.3301964 7.3301964 7.3301964 7.3301964 7.252941 7.252941 7.1756864 7.1756864 7.0984316 7.0984316 7.021177 7.021177 6.9439216 6.9439216 6.866667 6.789412 6.789412 6.789412 6.7121572 6.7121572 6.634902 6.557647 6.557647 6.557647 6.4803925 6.4803925 6.4031377 6.4031377 6.3258824 6.3258824 6.3258824 6.2486277 6.2486277 6.171373 6.171373 6.094118 6.094118 6.094118 6.016863 6.016863 6.016863 5.939608 5.939608 5.8623533 5.8623533 5.8623533 5.785098 5.785098 5.785098 5.7078433 5.7078433 5.7078433 5.6305885 5.6305885 5.6305885 5.7078433 5.7078433 5.7078433 5.7078433 5.7078433 5.7078433 5.7078433 5.7078433 5.7078433 5.785098 5.785098 5.785098 5.785098 5.785098 5.785098 5.785098 5.8623533 5.8623533 5.8623533 5.8623533
16.137257 16.214512 16.214512 16.214512 16.291765 16.291765 16.36902 16.36902 16.36902 16.446276 16.446276 16.523531 16.523531 16.523531 16.600786 16.600786 16.600786 16.678041 16.678041 16.755295 16.755295 16.83255 16.83255 16.83255 16.909805 16.909805 16.98706 16.98706 16.98706 17.064316 17.064316 16.291765 16.291765 16.291765 16.291765 16.291765 16.36902 16.36902 16.36902 16.446276 16.446276 16.523531 16.523531 16.523531 16.600786 16.600786 16.600786 16.678041 16.678041 16.678041 16.755295 16.755295 16.83255 16.83255 16.83255 16.83255 16.909805 16.909805 16.909805 16.98706 16.98706 17.064316 17.064316 17.14157 17.14157 17.14157 17.218824 17.218824 17.29608 17.29608 17.373335 17.373335 17.373335 17.45059 17.45059 17.45059 17.527845 17.527845 17.605099 17.605099 17.605099 14.514902 14.437648 14.360393 14.360393 14.283137 14.283137 14.283137 14.283137 14.283137 14.283137 14.283137 14.283137 14.205883 14.205883 14.205883 14.205883 14.128628 11.501962 11.501962 11.424706 11.424706 11.347451 11.270197 11.270197 11.270197 11.270197 11.270197 11.347451 11.192942 11.115686 11.038432 10.961177 10.961177 10.883923 10.806667 10.806667 10.729412 10.729412 10.806667 10.806667 10.806667 10.883923 10.883923 10.883923 10.961177 10.961177 10.961177 11.038432 11.038432 11.038432 11.038432 11.115686 11.115686 11.115686 11.192942 11.192942 11.192942 11.270197 11.270197 11.270197 11.347451 11.347451 11.347451 11.424706 11.424706 11.424706 11.501962 11.501962 11.501962 11.579216 11.579216 11.579216 11.656471 11.656471 11.656471 11.733726 11.656471 11.579216 11.501962 11.424706 11.424706 11.424706 11.347451 11.347451 11.270197 11.270197 11.192942 11.192942 11.115686 11.115686 11.115686 11.038432 11.038432 10.961177 10.961177 10.961177 10.883923 10.883923 10.883923 10.883923 10.883923 10.883923 10.883923 10.883923 10.883923 10.883923 10.961177 10.961177 10.883923 10.806667 10.729412 10.652158 10.574903 10.574903 10.497647 10.497647 10.497647 10.420393 10.420393 10.343138 10.343138 10.343138 10.343138 10.343138 10.343138 10.343138 10.2658825 10.2658825 10.2658825 10.188628 10.188628 10.188628 10.111373 10.111373 10.111373 10.111373 10.034119 10.034119 9.956863 9.956863 9.879608 9.879608 9.802354 9.647843 7.252941 7.252941 7.252941 7.252941 7.252941 7.252941 7.252941 7.252941 7.3301964 7.3301964 7.3301964 7.3301964 7.3301964 7.3301964 7.3301964 7.3301964 7.3301964 7.3301964 7.3301964 7.3301964 7.3301964 7.3301964 7.3301964 7.252941 7.252941 7.1756864 7.1756864 7.0984316 7.0984316 7.021177 7.021177 6.9439216 6.9439216 6.866667 6.789412 6.789412 6.789412 6.7121572 6.634902 6.634902 6.557647 6.557647 6.557647 6.4803925 6.4803925 6.4031377 6.4031377 6.3258824 6.3258824 6.2486277 6.2486277 6.2486277 6.171373 6.171373 6.094118 6.094118 6.094118 6.016863 6.016863 6.016863 5.939608 5.939608 5.8623533 5.8623533 5.8623533 5.785098 5.785098 5.785098 5.7078433 5.7078433 5.6305885 5.6305885 5.6305885 5.6305885 5.6305885 5.6305885 5.6305885 5.7078433 5.7078433 5.7078433 5.7078433 5.7078433 5.785098 5.785098 5.785098 5.785098 5.785098 5.785098 5.785098 5.8623533 5.8623533 5.8623533 5.8623533 5.8623533
16.137257 16.214512 16.214512 16.214512 16.291765 16.291765 16.36902 16.36902 16.36902 16.446276 16.446276 16.523531 16.523531 16.523531 16.600786 16.600786 16.600786 16.678041 16.678041 16.755295 16.755295 16.755295 16.83255 16.83255 16.909805 16.909805 16.909805 16.98706 16.98706 17.064316 16.214512 16.214512 16.214512 16.214512 16.291765 16.291765 16.291765 16.36902 16.36902 16.446276 16.446276 16.446276 16.523531 16.523531 16.600786 16.600786 16.600786 16.678041 16.678041 16.755295 16.755295 16.755295 16.83255 16.83255 16.83255 16.909805 16.909805 16.909805 16.98706 16.98706 16.98706 17.064316 17.064316 17.14157 17.14157 17.14157 17.218824 17.218824 17.29608 17.29608 17.29608 17.373335 17.373335 17.45059 17.45059 17.45059 17.527845 17.527845 17.527845 14.514902 14.437648 14.360393 14.283137 14.205883 14.205883 14.205883 14.205883 14.205883 14.205883 14.205883 14.205883 14.128628 14.128628 14.128628 14.128628 14.128628 14.128628 14.128628 11.501962 11.501962 11.424706 11.347451 11.347451 11.270197 11.192942 11.270197 11.270197 11.270197 11.270197 11.115686 11.038432 11.038432 10.961177 10.883923 10.883923 10.806667 10.729412 10.729412 10.729412 10.806667 10.806667 10.806667 10.806667 10.883923 10.883923 10.883923 10.961177 10.961177 10.961177 11.038432 11.038432 11.038432 11.038432 11.115686 11.115686 11.115686 11.192942 11.192942 11.192942 11.270197 11.270197 11.270197 11.347451 11.347451 11.347451 11.424706 11.424706 11.424706 11.501962 11.501962 11.501962 11.579216 11.579216 11.579216 11.656471 11.656471 11.579216 11.579216 11.501962 11.424706 11.424706 11.347451 11.347451 11.270197 11.270197 11.192942 11.192942 11.115686 11.115686 11.115686 11.038432 11.038432 10.961177 10.961177 10.883923 10.883923 10.883923 10.883923 10.806667 10.806667 10.806667 10.806667 10.883923 10.883923 10.883923 10.883923 10.883923 10.883923 10.806667 10.729412 10.652158 10.574903 10.574903 10.497647 10.497647 10.420393 10.420393 10.420393 10.343138 10.343138 10.343138 10.343138 10.343138 10.343138 10.2658825 10.2658825 10.2658825 10.188628 10.188628 10.188628 10.188628 10.111373 10.111373 10.111373 10.034119 10.034119 10.034119 9.956863 9.956863 9.956863 9.879608 9.879608 9.802354 9.802354 9.725099 9.570589 7.252941 7.252941 7.252941 7.252941 7.252941 7.252941 7.252941 7.3301964 7.3301964 7.3301964 7.3301964 7.3301964 7.3301964 7.3301964 7.3301964 7.3301964 7.3301964 7.3301964 7.3301964 7.3301964 7.3301964 7.3301964 7.252941 7.252941 7.1756864 7.1756864 7.0984316 7.0984316 7.021177 6.9439216 6.9439216 6.9439216 6.866667 6.789412 6.789412 6.789412 6.7121572 6.634902 6.634902 6.557647 6.557647 6.557647 6.4803925 6.4803925 6.4031377 6.4031377 6.3258824 6.3258824 6.2486277 6.2486277 6.2486277 6.171373 6.171373 6.094118 6.094118 6.094118 6.016863 6.016863 6.016863 5.939608 5.939608 5.8623533 5.8623533 5.8623533 5.785098 5.785098 5.785098 5.7078433 5.7078433 5.6305885 5.6305885 5.6305885 5.6305885 5.6305885 5.6305885 5.7078433 5.7078433 5.7078433 5.7078433 5.7078433 5.7078433 5.785098 5.785098 5.785098 5.785098 5.785098 5.785098 5.785098 5.8623533 5.8623533 5.8623533 5.8623533 5.8623533
16.137257 16.214512 16.214512 16.214512 16.291765 16.291765 16.36902 16.36902 16.36902 16.446276 16.446276 16.523531 16.523531 16.523531 16.600786 16.600786 16.600786 16.678041 16.678041 16.755295 16.755295 16.755295 16.83255 16.83255 16.909805 16.909805 16.909805 16.98706 16.98706 16.98706 16.214512 16.214512 16.214512 16.214512 16.291765 16.291765 16.291765 16.36902 16.36902 16.36902 16.446276 16.446276 16.523531 16.523531 16.523531 16.600786 16.600786 16.678041 16.678041 16.678041 16.755295 16.755295 16.755295 16.83255 16.83255 16.909805 16.909805 16.909805 16.98706 16.98706 16.98706 17.064316 17.064316 17.14157 17.14157 17.14157 17.218824 17.218824 17.218824 17.29608 17.29608 17.29608 17.373335 17.373335 17.373335 17.45059 17.45059 17.45059 14.360393 14.283137 14.205883 14.205883 14.128628 14.128628 14.128628 14.128628 14.128628 14.128628 14.051373 14.051373 14.051373 14.051373 14.051373 14.051373 14.051373 14.051373 14.051373 11.888236 11.501962 11.424706 11.424706 11.347451 11.270197 11.270197 11.192942 11.192942 11.192942 11.270197 11.115686 11.038432 11.038432 10.961177 10.883923 10.883923 10.806667 10.729412 10.729412 10.729412 10.729412 10.729412 10.806667 10.806667 10.806667 10.806667 10.883923 10.883923 10.883923 10.961177 10.961177 10.961177 11.038432 11.038432 11.038432 11.038432 11.115686 11.115686 11.115686 11.192942 11.192942 11.192942 11.270197 11.270197 11.270197 11.347451 11.347451 11.347451 11.424706 11.424706 11.424706 11.501962 11.501962 11.501962 11.579216 11.579216 11.579216 11.579216 11.501962 11.424706 11.347451 11.347451 11.347451 11.270197 11.270197 11.192942 11.192942 11.115686 11.115686 11.115686 11.038432 11.038432 10.961177 10.961177 10.883923 10.883923 10.883923 10.806667 10.806667 10.806667 10.806667 10.806667 10.806667 10.806667 10.806667 10.806667 10.806667 10.806667 10.806667 10.729412 10.652158 10.574903 10.574903 10.497647 10.497647 10.420393 10.420393 10.343138 10.343138 10.343138 10.2658825 10.2658825 10.2658825 10.2658825 10.2658825 10.2658825 10.2658825 10.188628 10.188628 10.188628 10.111373 10.111373 10.111373 10.034119 10.034119 10.034119 9.956863 9.956863 9.956863 9.956863 9.879608 9.879608 9.879608 9.802354 9.802354 9.725099 9.725099 9.570589 9.493334 9.338824 7.252941 7.252941 7.252941 7.252941 7.3301964 7.3301964 7.3301964 7.3301964 7.3301964 7.3301964 7.3301964 7.3301964 7.3301964 7.3301964 7.3301964 7.3301964 7.3301964 7.3301964 7.3301964 7.3301964 7.252941 7.252941 7.1756864 7.1756864 7.0984316 7.0984316 7.021177 6.9439216 6.9439216 6.9439216 6.866667 6.789412 6.789412 6.789412 6.7121572 6.634902 6.634902 6.557647 6.557647 6.557647 6.4803925 6.4803925 6.4031377 6.4031377 6.3258824 6.3258824 6.2486277 6.2486277 6.2486277 6.171373 6.171373 6.094118 6.094118 6.094118 6.016863 6.016863 5.939608 5.939608 5.939608 5.8623533 5.8623533 5.785098 5.785098 5.785098 5.785098 5.7078433 5.7078433 5.6305885 5.6305885 5.6305885 5.6305885 5.6305885 5.6305885 5.7078433 5.7078433 5.7078433 5.7078433 5.7078433 5.785098 5.785098 5.785098 5.785098 5.785098 5.785098 5.785098 5.8623533 5.8623533 5.8623533 5.8623533 5.8623533 5.8623533
16.137257 16.214512 16.214512 16.214512 16.291765 16.291765 16.36902 16.36902 16.36902 16.446276 16.446276 16.446276 16.523531 16.523531 16.600786 16.600786 16.600786 16.678041 16.678041 16.755295 16.755295 16.755295 16.83255 16.83255 16.909805 16.909805 16.909805 16.909805 16.98706 16.214512 16.137257 16.214512 16.214512 16.214512 16.291765 16.291765 16.291765 16.36902 16.36902 16.36902 16.446276 16.446276 16.523531 16.523531 16.523531 16.600786 16.600786 16.600786 16.678041 16.678041 16.678041 16.755295 16.755295 16.83255 16.83255 16.83255 16.909805 16.909805 16.909805 16.98706 16.98706 16.98706 17.064316 17.064316 17.14157 17.14157 17.14157 17.218824 17.218824 17.218824 17.29608 17.29608 17.29608 17.29608 17.373335 17.373335 14.360393 14.283137 14.205883 14.128628 14.051373 14.051373 14.051373 14.051373 14.051373 14.051373 13.974118 13.974118 13.974118 13.974118 13.974118 13.974118 13.974118 13.974118 13.974118 13.896863 13.896863 11.579216 11.501962 11.424706 11.424706 11.347451 11.270197 11.270197 11.192942 11.192942 11.192942 11.192942 11.038432 11.038432 10.961177 10.961177 10.883923 10.806667 10.729412 10.652158 10.652158 10.652158 10.729412 10.729412 10.729412 10.806667 10.806667 10.806667 10.883923 10.883923 10.883923 10.883923 10.961177 10.961177 10.961177 11.038432 11.038432 11.038432 11.115686 11.115686 11.115686 11.115686 11.192942 11.192942 11.192942 11.270197 11.270197 11.270197 11.347451 11.347451 11.347451 11.424706 11.424706 11.424706 11.501962 11.501962 11.501962 11.579216 11.501962 11.424706 11.424706 11.347451 11.270197 11.270197 11.270197 11.192942 11.192942 11.115686 11.115686 11.038432 11.038432 11.038432 10.961177 10.961177 10.883923 10.883923 10.806667 10.806667 10.806667 10.806667 10.729412 10.729412 10.729412 10.729412 10.729412 10.729412 10.806667 10.806667 10.806667 10.806667 10.729412 10.652158 10.574903 10.497647 10.497647 10.420393 10.420393 10.343138 10.343138 10.343138 10.2658825 10.2658825 10.2658825 10.188628 10.188628 10.188628 10.188628 10.188628 10.188628 10.111373 10.111373 10.111373 10.034119 10.034119 10.034119 9.956863 9.956863 9.956863 9.956863 9.879608 9.879608 9.879608 9.879608 9.802354 9.802354 9.802354 9.725099 9.725099 9.647843 9.570589 9.4160795 9.338824 9.261569 9.184315 7.252941 7.3301964 7.3301964 7.3301964 7.3301964 7.3301964 7.3301964 7.3301964 7.3301964 7.3301964 7.3301964 7.3301964 7.3301964 7.3301964 7.3301964 7.3301964 7.3301964 7.3301964 7.252941 7.252941 7.1756864 7.1756864 7.0984316 7.0984316 7.021177 6.9439216 6.9439216 6.9439216 6.866667 6.789412 6.789412 6.7121572 6.7121572 6.634902 6.634902 6.557647 6.557647 6.557647 6.4803925 6.4803925 6.4031377 6.4031377 6.3258824 6.3258824 6.2486277 6.2486277 6.2486277 6.171373 6.171373 6.094118 6.094118 6.094118 6.016863 6.016863 5.939608 5.939608 5.939608 5.8623533 5.8623533 5.785098 5.785098 5.785098 5.785098 5.7078433 5.7078433 5.6305885 5.6305885 5.6305885 5.6305885 5.6305885 5.7078433 5.7078433 5.7078433 5.7078433 5.7078433 5.7078433 5.785098 5.785098 5.785098 5.785098 5.785098 5.785098 5.785098 5.8623533 5.8623533 5.8623533 5.8623533 5.8623533 5.8623533
16.137257 16.214512 16.214512 16.214512 16.291765 16.291765 16.36902 16.36902 16.36902 16.446276 16.446276 16.446276 16.523531 16.523531 16.523531 16.600786 16.600786 16.678041 16.678041 16.678041 16.755295 16.755295 16.83255 16.83255 16.83255 16.909805 16.909805 16.909805 16.137257 16.137257 16.137257 16.214512 16.214512 16.214512 16.214512 16.291765 16.291765 16.36902 16.36902 16.36902 16.36902 16.446276 16.446276 16.523531 16.523531 16.523531 16.600786 16.600786 16.600786 16.678041 16.678041 16.755295 16.755295 16.755295 16.83255 16.83255 16.83255 16.909805 16.909805 16.909805 16.98706 16.98706 16.98706 17.064316 17.064316 17.14157 17.14157 17.14157 17.14157 17.218824 17.218824 17.218824 17.218824 17.29608 17.29608 14.283137 14.205883 14.128628 14.051373 13.974118 13.974118 13.974118 13.974118 13.974118 13.896863 13.896863 13.896863 13.896863 13.896863 13.896863 13.896863 13.896863 13.819609 13.819609 13.819609 13.819609 11.96549 11.501962 11.501962 11.424706 11.347451 11.347451 11.270197 11.192942 11.192942 11.115686 11.192942 11.115686 11.038432 10.961177 10.961177 10.883923 10.806667 10.729412 10.652158 10.652158 10.652158 10.652158 10.652158 10.729412 10.729412 10.729412 10.806667 10.806667 10.806667 10.883923 10.883923 10.883923 10.883923 10.961177 10.961177 10.961177 11.038432 11.038432 11.038432 11.115686 11.115686 11.115686 11.115686 11.192942 11.192942 11.192942 11.270197 11.270197 11.270197 11.347451 11.347451 11.347451 11.424706 11.424706 11.424706 11.501962 11.501962 11.424706 11.424706 11.347451 11.270197 11.270197 11.270197 11.192942 11.192942 11.115686 11.115686 11.038432 11.038432 11.038432 10.961177 10.961177 10.883923 10.883923 10.806667 10.806667 10.806667 10.729412 10.729412 10.729412 10.729412 10.729412 10.729412 10.729412 10.729412 10.729412 10.729412 10.729412 10.729412 10.652158 10.574903 10.497647 10.497647 10.420393 10.420393 10.343138 10.343138 10.2658825 10.2658825 10.2658825 10.188628 10.188628 10.188628 10.188628 10.188628 10.188628 10.188628 10.111373 10.111373 10.111373 10.034119 10.034119 10.034119 9.956863 9.956863 9.956863 9.879608 9.879608 9.879608 9.879608 9.802354 9.802354 9.802354 9.725099 9.725099 9.725099 9.725099 9.647843 9.647843 9.570589 9.4160795 9.338824 9.261569 9.184315 9.1070595 9.029804 7.3301964 7.3301964 7.3301964 7.3301964 7.3301964 7.3301964 7.3301964 7.3301964 7.3301964 7.3301964 7.3301964 7.3301964 7.3301964 7.3301964 7.3301964 7.3301964 7.252941 7.252941 7.1756864 7.1756864 7.0984316 7.0984316 7.021177 6.9439216 6.9439216 6.866667 6.866667 6.789412 6.789412 6.7121572 6.7121572 6.634902 6.634902 6.557647 6.557647 6.557647 6.4803925 6.4803925 6.4031377 6.4031377 6.3258824 6.3258824 6.2486277 6.2486277 6.2486277 6.171373 6.171373 6.094118 6.094118 6.094118 6.016863 6.016863 5.939608 5.939608 5.939608 5.8623533 5.8623533 5.785098 5.785098 5.785098 5.7078433 5.7078433 5.7078433 5.7078433 5.7078433 5.7078433 5.6305885 5.6305885 5.7078433 5.7078433 5.7078433 5.7078433 5.7078433 5.785098 5.785098 5.785098 5.785098 5.785098 5.785098 5.785098 5.8623533 5.8623533 5.8623533 5.8623533 5.8623533 5.8623533 5.939608
16.137257 16.214512 16.214512 16.214512 16.291765 16.291765 16.36902 16.36902 16.36902 16.446276 16.446276 16.446276 16.523531 16.523531 16.523531 16.600786 16.600786 16.678041 16.678041 16.678041 16.755295 16.755295 16.755295 16.83255 16.83255 16.83255 16.909805 16.137257 16.137257 16.137257 16.137257 16.137257 16.214512 16.214512 16.214512 16.291765 16.291765 16.36902 16.36902 16.36902 16.36902 16.446276 16.446276 16.523531 16.523531 16.523531 16.523531 16.600786 16.600786 16.678041 16.678041 16.678041 16.755295 16.755295 16.755295 16.83255 16.83255 16.83255 16.909805 16.909805 16.909805 16.98706 16.98706 16.98706 17.064316 17.064316 17.064316 17.064316 17.14157 17.14157 17.14157 17.14157 17.14157 14.205883 14.128628 14.051373 13.974118 13.974118 13.896863 13.896863 13.896863 13.819609 13.819609 13.819609 13.819609 13.819609 13.819609 13.819609 13.819609 13.819609 13.742353 13.742353 13.742353 13.742353 13.742353 13.742353 11.579216 11.501962 11.501962 11.424706 11.347451 11.347451 11.270197 11.192942 11.192942 11.115686 11.115686 11.038432 11.038432 10.961177 10.883923 10.806667 10.729412 10.652158 10.652158 10.652158 10.652158 10.652158 10.652158 10.729412 10.729412 10.729412 10.729412 10.806667 10.806667 10.806667 10.883923 10.883923 10.883923 10.883923 10.961177 10.961177 10.961177 11.038432 11.038432 11.038432 11.115686 11.115686 11.115686 11.115686 11.192942 11.192942 11.192942 11.270197 11.270197 11.270197 11.347451 11.347451 11.424706 11.424706 11.424706 11.501962 11.424706 11.347451 11.270197 11.270197 11.192942 11.192942 11.192942 11.115686 11.115686 11.038432 11.038432 11.038432 10.961177 10.961177 10.883923 10.883923 10.806667 10.806667 10.729412 10.729412 10.729412 10.729412 10.729412 10.652158 10.652158 10.652158 10.652158 10.652158 10.652158 10.729412 10.729412 10.729412 10.652158 10.574903 10.497647 10.420393 10.420393 10.343138 10.343138 10.2658825 10.2658825 10.2658825 10.188628 10.188628 10.188628 10.111373 10.111373 10.111373 10.111373 10.111373 10.111373 10.034119 10.034119 10.034119 9.956863 9.956863 9.956863 9.956863 9.879608 9.879608 9.879608 9.802354 9.802354 9.802354 9.725099 9.725099 9.725099 9.725099 9.647843 9.647843 9.647843 9.647843 9.570589 9.570589 9.4160795 9.338824 9.261569 9.184315 9.1070595 9.029804 8.95255 8.875295 7.3301964 7.3301964 7.3301964 7.3301964 7.3301964 7.3301964 7.3301964 7.3301964 7.3301964 7.3301964 7.3301964 7.3301964 7.3301964 7.3301964 7.252941 7.252941 7.1756864 7.1756864 7.0984316 7.0984316 7.021177 6.9439216 6.9439216 6.866667 6.866667 6.789412 6.789412 6.7121572 6.7121572 6.634902 6.634902 6.557647 6.557647 6.557647 6.4803925 6.4803925 6.4031377 6.4031377 6.3258824 6.3258824 6.2486277 6.2486277 6.2486277 6.171373 6.171373 6.094118 6.094118 6.094118 6.016863 6.016863 5.939608 5.939608 5.939608 5.8623533 5.8623533 5.785098 5.785098 5.785098 5.7078433 5.7078433 5.7078433 5.7078433 5.7078433 5.7078433 5.7078433 5.7078433 5.7078433 5.7078433 5.7078433 5.7078433 5.7078433 5.785098 5.785098 5.785098 5.785098 5.785098 5.785098 5.785098 5.8623533 5.8623533 5.8623533 5.8623533 5.8623533 5.8623533 5.939608
16.137257 16.214512 16.214512 16.214512 16.291765 16.291765 16.36902 16.36902 16.36902 16.446276 16.446276 16.446276 16.523531 16.523531 16.523531 16.600786 16.600786 16.678041 16.678041 16.678041 16.755295 16.755295 16.755295 16.83255 16.83255 16.83255 16.060001 16.060001 16.060001 16.137257 16.137257 16.137257 16.137257 16.214512 16.214512 16.214512 16.291765 16.291765 16.36902 16.36902 16.36902 16.36902 16.446276 16.446276 16.523531 16.523531 16.523531 16.600786 16.600786 16.600786 16.678041 16.678041 16.678041 16.755295 16.755295 16.755295 16.83255 16.83255 16.83255 16.909805 16.909805 16.909805 16.909805 16.98706 16.98706 16.98706 16.98706 16.98706 16.98706 17.064316 17.064316 17.064316 14.051373 14.051373 13.974118 13.896863 13.819609 13.819609 13.819609 13.819609 13.742353 13.742353 13.742353 13.742353 13.742353 13.742353 13.742353 13.742353 13.665098 13.665098 13.665098 13.665098 13.665098 13.665098 13.665098 12.120001 11.579216 11.501962 11.424706 11.424706 11.347451 11.270197 11.270197 11.192942 11.115686 11.115686 11.038432 11.038432 10.961177 10.806667 10.729412 10.652158 10.652158 10.652158 10.574903 10.574903 10.574903 10.652158 10.652158 10.652158 10.729412 10.729412 10.729412 10.729412 10.806667 10.806667 10.806667 10.883923 10.883923 10.883923 10.883923 10.961177 10.961177 10.961177 11.038432 11.038432 11.038432 11.115686 11.115686 11.115686 11.115686 11.192942 11.192942 11.192942 11.270197 11.270197 11.347451 11.347451 11.424706 11.424706 11.424706 11.347451 11.270197 11.270197 11.192942 11.192942 11.115686 11.115686 11.115686 11.038432 11.038432 10.961177 10.961177 10.961177 10.883923 10.883923 10.806667 10.806667 10.729412 10.729412 10.729412 10.652158 10.652158 10.652158 10.652158 10.652158 10.652158 10.652158 10.652158 10.652158 10.652158 10.652158 10.652158 10.574903 10.497647 10.420393 10.420393 10.343138 10.343138 10.2658825 10.2658825 10.2658825 10.188628 10.188628 10.188628 10.111373 10.111373 10.111373 10.111373 10.111373 10.034119 10.034119 10.034119 9.956863 9.956863 9.956863 9.956863 9.879608 9.879608 9.879608 9.802354 9.802354 9.802354 9.725099 9.725099 9.725099 9.725099 9.647843 9.647843 9.647843 9.647843 9.570589 9.570589 9.570589 9.570589 9.493334 9.4160795 9.338824 9.261569 9.184315 9.1070595 9.029804 8.95255 8.875295 8.798039 8.720785 7.3301964 7.3301964 7.3301964 7.3301964 7.3301964 7.3301964 7.3301964 7.3301964 7.3301964 7.407451 7.3301964 7.3301964 7.252941 7.252941 7.1756864 7.1756864 7.0984316 7.0984316 7.021177 6.9439216 6.9439216 6.866667 6.866667 6.789412 6.789412 6.7121572 6.7121572 6.634902 6.634902 6.557647 6.557647 6.557647 6.4803925 6.4803925 6.4031377 6.4031377 6.3258824 6.3258824 6.2486277 6.2486277 6.2486277 6.171373 6.171373 6.094118 6.094118 6.094118 6.016863 6.016863 5.939608 5.939608 5.939608 5.8623533 5.8623533 5.785098 5.785098 5.785098 5.7078433 5.7078433 5.7078433 5.7078433 5.7078433 5.7078433 5.7078433 5.7078433 5.7078433 5.7078433 5.7078433 5.7078433 5.785098 5.785098 5.785098 5.785098 5.785098 5.785098 5.785098 5.8623533 5.8623533 5.8623533 5.8623533 5.8623533 5.8623533 5.939608 5.939608
16.137257 16.214512 16.214512 16.214512 16.291765 16.291765 16.36902 16.36902 16.36902 16.446276 16.446276 16.446276 16.523531 16.523531 16.523531 16.600786 16.600786 16.600786 16.678041 16.678041 16.678041 16.755295 16.755295 16.755295 16.83255 16.060001 16.060001 16.060001 16.060001 16.060001 16.137257 16.137257 16.137257 16.214512 16.214512 16.214512 16.291765 16.291765 16.291765 16.36902 16.36902 16.36902 16.36902 16.446276 16.446276 16.523531 16.523531 16.523531 16.600786 16.600786 16.600786 16.678041 16.678041 16.678041 16.678041 16.755295 16.755295 16.755295 16.83255 16.83255 16.83255 16.83255 16.83255 16.909805 16.909805 16.909805 16.909805 16.909805 16.909805 16.909805 16.909805 13.974118 13.896863 13.819609 13.819609 13.742353 13.742353 13.742353 13.665098 13.665098 13.665098 13.665098 13.665098 13.665098 13.665098 13.665098 13.587844 13.587844 13.587844 13.587844 13.587844 13.587844 13.587844 13.587844 13.587844 11.579216 11.579216 11.501962 11.424706 11.424706 11.347451 11.270197 11.270197 11.192942 11.115686 11.115686 10.961177 10.883923 10.806667 10.729412 10.652158 10.652158 10.574903 10.574903 10.574903 10.574903 10.574903 10.574903 10.652158 10.652158 10.652158 10.729412 10.729412 10.729412 10.729412 10.806667 10.806667 10.806667 10.883923 10.883923 10.883923 10.883923 10.961177 10.961177 10.961177 11.038432 11.038432 11.038432 11.115686 11.115686 11.115686 11.115686 11.192942 11.192942 11.270197 11.270197 11.347451 11.347451 11.424706 11.424706 11.347451 11.270197 11.192942 11.192942 11.115686 11.115686 11.115686 11.038432 11.038432 10.961177 10.961177 10.883923 10.883923 10.883923 10.806667 10.806667 10.729412 10.729412 10.652158 10.652158 10.652158 10.652158 10.652158 10.574903 10.574903 10.574903 10.574903 10.574903 10.574903 10.574903 10.652158 10.574903 10.497647 10.497647 10.420393 10.343138 10.343138 10.2658825 10.2658825 10.2658825 10.188628 10.188628 10.111373 10.111373 10.111373 10.034119 10.034119 10.034119 10.034119 10.034119 10.034119 9.956863 9.956863 9.956863 9.879608 9.879608 9.879608 9.802354 9.802354 9.802354 9.725099 9.725099 9.725099 9.725099 9.647843 9.647843 9.647843 9.647843 9.570589 9.570589 9.570589 9.570589 9.493334 9.493334 9.493334 9.4160795 9.4160795 9.338824 9.261569 9.184315 9.1070595 9.029804 8.95255 8.875295 8.798039 8.720785 8.64353 8.48902 7.3301964 7.3301964 7.3301964 7.3301964 7.3301964 7.3301964 7.3301964 7.407451 7.3301964 7.3301964 7.252941 7.252941 7.1756864 7.1756864 7.0984316 7.021177 7.021177 6.9439216 6.9439216 6.866667 6.866667 6.789412 6.789412 6.7121572 6.7121572 6.634902 6.634902 6.557647 6.557647 6.557647 6.4803925 6.4803925 6.4031377 6.4031377 6.3258824 6.3258824 6.2486277 6.2486277 6.2486277 6.171373 6.171373 6.094118 6.094118 6.094118 6.016863 6.016863 5.939608 5.939608 5.939608 5.8623533 5.8623533 5.785098 5.785098 5.785098 5.785098 5.785098 5.785098 5.785098 5.785098 5.785098 5.7078433 5.7078433 5.7078433 5.7078433 5.7078433 5.7078433 5.785098 5.785098 5.785098 5.785098 5.785098 5.785098 5.785098 5.8623533 5.8623533 5.8623533 5.8623533 5.8623533 5.8623533 5.939608 5.939608
16.137257 16.214512 16.214512 16.214512 16.291765 16.291765 16.36902 16.36902 16.36902 16.446276 16.446276 16.446276 16.523531 16.523531 16.523531 16.600786 16.600786 16.600786 16.678041 16.678041 16.678041 16.678041 16.755295 16.755295 15.982746 15.982746 15.982746 16.060001 16.060001 16.060001 16.060001 16.137257 16.137257 16.137257 16.214512 16.214512 16.214512 16.214512 16.291765 16.291765 16.36902 16.36902 16.36902 16.36902 16.446276 16.446276 16.523531 16.523531 16.523531 16.523531 16.600786 16.600786 16.600786 16.678041 16.678041 16.678041 16.678041 16.755295 16.755295 16.755295 16.755295 16.755295 16.755295 16.755295 16.755295 16.83255 16.755295 16.755295 16.755295 16.678041 13.896863 13.819609 13.819609 13.819609 13.742353 13.742353 13.742353 13.665098 13.665098 13.665098 13.665098 13.587844 13.587844 13.587844 13.587844 13.587844 13.587844 13.510589 13.510589 13.510589 13.510589 13.510589 13.510589 13.510589 13.510589 11.579216 11.501962 11.501962 11.424706 11.347451 11.347451 11.270197 11.192942 11.115686 11.115686 10.961177 10.883923 10.806667 10.729412 10.652158 10.574903 10.574903 10.574903 10.574903 10.574903 10.574903 10.574903 10.574903 10.574903 10.652158 10.652158 10.652158 10.729412 10.729412 10.729412 10.729412 10.806667 10.806667 10.806667 10.883923 10.883923 10.883923 10.883923 10.961177 10.961177 10.961177 11.038432 11.038432 11.038432 11.115686 11.115686 11.115686 11.192942 11.192942 11.270197 11.270197 11.347451 11.347451 11.347451 11.270197 11.192942 11.192942 11.115686 11.115686 11.115686 11.038432 11.038432 10.961177 10.961177 10.883923 10.883923 10.883923 10.806667 10.806667 10.729412 10.729412 10.652158 10.652158 10.652158 10.652158 10.574903 10.574903 10.574903 10.574903 10.574903 10.574903 10.574903 10.574903 10.574903 10.574903 10.574903 10.497647 10.420393 10.343138 10.343138 10.2658825 10.2658825 10.2658825 10.188628 10.188628 10.111373 10.111373 10.111373 10.034119 10.034119 10.034119 10.034119 10.034119 9.956863 9.956863 9.956863 9.879608 9.879608 9.879608 9.879608 9.802354 9.802354 9.802354 9.725099 9.725099 9.725099 9.647843 9.647843 9.647843 9.570589 9.570589 9.570589 9.570589 9.493334 9.493334 9.493334 9.493334 9.4160795 9.4160795 9.4160795 9.338824 9.338824 9.261569 9.261569 9.184315 9.1070595 9.029804 8.95255 8.875295 8.798039 8.720785 8.64353 8.566276 8.411765 8.18 7.3301964 7.3301964 7.3301964 7.3301964 7.407451 7.407451 7.3301964 7.3301964 7.252941 7.252941 7.1756864 7.1756864 7.0984316 7.021177 7.021177 6.9439216 6.9439216 6.866667 6.866667 6.789412 6.789412 6.7121572 6.7121572 6.634902 6.634902 6.557647 6.557647 6.557647 6.4803925 6.4803925 6.4031377 6.4031377 6.3258824 6.3258824 6.2486277 6.2486277 6.2486277 6.171373 6.171373 6.094118 6.094118 6.094118 6.016863 6.016863 5.939608 5.939608 5.939608 5.8623533 5.8623533 5.785098 5.785098 5.785098 5.785098 5.785098 5.785098 5.785098 5.785098 5.785098 5.785098 5.785098 5.785098 5.785098 5.785098 5.785098 5.785098 5.785098 5.785098 5.785098 5.785098 5.785098 5.8623533 5.8623533 5.8623533 5.8623533 5.8623533 5.8623533 5.939608 5.939608 5.939608
16.214512 16.214512 16.214512 16.291765 16.291765 16.291765 16.36902 16.36902 16.36902 16.446276 16.446276 16.446276 16.523531 16.523531 16.523531 16.600786 16.600786 16.600786 16.600786 16.678041 16.678041 16.678041 16.755295 16.755295 15.982746 15.982746 15.982746 15.982746 16.060001 16.060001 16.060001 16.060001 16.137257 16.137257 16.137257 16.137257 16.214512 16.214512 16.214512 16.291765 16.291765 16.36902 16.36902 16.36902 16.36902 16.446276 16.446276 16.446276 16.523531 16.523531 16.523531 16.523531 16.600786 16.600786 16.600786 16.600786 16.600786 16.678041 16.678041 16.678041 16.678041 16.678041 16.678041 16.678041 16.678041 16.678041 16.600786 16.600786 16.600786 13.896863 13.896863 13.819609 13.819609 13.819609 13.742353 13.742353 13.665098 13.665098 13.665098 13.665098 13.587844 13.587844 13.587844 13.510589 13.510589 13.510589 13.510589 13.510589 13.510589 13.433333 13.433333 13.433333 13.433333 13.433333 11.656471 11.579216 11.501962 11.424706 11.424706 11.347451 11.270197 11.192942 11.192942 11.115686 11.038432 10.806667 10.729412 10.652158 10.574903 10.574903 10.574903 10.574903 10.574903 10.574903 10.497647 10.497647 10.574903 10.574903 10.574903 10.574903 10.652158 10.652158 10.652158 10.729412 10.729412 10.729412 10.729412 10.806667 10.806667 10.806667 10.883923 10.883923 10.883923 10.961177 10.961177 10.961177 10.961177 11.038432 11.038432 11.038432 11.115686 11.115686 11.192942 11.192942 11.270197 11.270197 11.347451 11.270197 11.192942 11.192942 11.115686 11.115686 11.038432 11.038432 11.038432 10.961177 10.961177 10.883923 10.883923 10.806667 10.806667 10.806667 10.729412 10.729412 10.652158 10.652158 10.652158 10.574903 10.574903 10.574903 10.574903 10.497647 10.497647 10.497647 10.497647 10.497647 10.497647 10.497647 10.497647 10.497647 10.420393 10.343138 10.343138 10.2658825 10.2658825 10.188628 10.188628 10.188628 10.111373 10.111373 10.111373 10.034119 10.034119 9.956863 9.956863 9.956863 9.956863 9.956863 9.956863 9.879608 9.879608 9.879608 9.802354 9.802354 9.802354 9.725099 9.725099 9.725099 9.647843 9.647843 9.647843 9.570589 9.570589 9.570589 9.570589 9.493334 9.493334 9.493334 9.493334 9.4160795 9.4160795 9.4160795 9.4160795 9.338824 9.338824 9.261569 9.261569 9.184315 9.184315 9.1070595 9.029804 9.029804 8.95255 8.875295 8.798039 8.720785 8.64353 8.566276 8.48902 8.257256 8.102746 7.3301964 7.3301964 7.407451 7.407451 7.407451 7.3301964 7.3301964 7.252941 7.252941 7.1756864 7.1756864 7.0984316 7.021177 7.021177 6.9439216 6.9439216 6.866667 6.866667 6.789412 6.789412 6.7121572 6.7121572 6.634902 6.634902 6.557647 6.557647 6.557647 6.4803925 6.4803925 6.4031377 6.4031377 6.3258824 6.3258824 6.2486277 6.2486277 6.2486277 6.171373 6.171373 6.094118 6.094118 6.094118 6.016863 6.016863 5.939608 5.939608 5.939608 5.8623533 5.8623533 5.785098 5.785098 5.785098 5.785098 5.785098 5.785098 5.785098 5.785098 5.785098 5.785098 5.785098 5.785098 5.785098 5.785098 5.785098 5.785098 5.785098 5.785098 5.785098 5.785098 5.785098 5.8623533 5.8623533 5.8623533 5.8623533 5.8623533 5.939608 5.939608 5.939608 5.939608
16.214512 16.214512 16.214512 16.291765 16.291765 16.291765 16.36902 16.36902 16.36902 16.446276 16.446276 16.523531 16.523531 16.523531 16.523531 16.523531 16.600786 16.600786 16.600786 16.600786 16.678041 16.678041 16.678041 16.755295 15.982746 15.982746 15.982746 15.982746 15.982746 16.060001 16.060001 16.060001 16.060001 16.137257 16.137257 16.137257 16.137257 16.214512 16.214512 16.214512 16.291765 16.291765 16.291765 16.36902 16.36902 16.36902 16.36902 16.446276 16.446276 16.446276 16.446276 16.523531 16.523531 16.523531 16.523531 16.523531 16.523531 16.523531 16.523531 16.523531 16.523531 16.600786 16.600786 16.600786 16.523531 16.523531 16.523531 16.523531 16.523531 13.896863 13.819609 13.819609 13.819609 13.742353 13.742353 13.742353 13.665098 13.665098 13.665098 13.587844 13.587844 13.587844 13.510589 13.510589 13.510589 13.510589 13.433333 13.433333 13.433333 13.433333 13.356079 13.356079 13.356079 11.656471 11.579216 11.501962 11.501962 11.424706 11.347451 11.270197 11.270197 11.192942 11.115686 11.038432 10.806667 10.729412 10.652158 10.574903 10.574903 10.574903 10.574903 10.574903 10.497647 10.497647 10.497647 10.497647 10.497647 10.574903 10.574903 10.574903 10.574903 10.652158 10.652158 10.652158 10.729412 10.729412 10.729412 10.729412 10.806667 10.806667 10.806667 10.883923 10.883923 10.883923 10.961177 10.961177 10.961177 11.038432 11.038432 11.038432 11.115686 11.115686 11.192942 11.192942 11.270197 11.270197 11.270197 11.192942 11.115686 11.115686 11.038432 11.038432 11.038432 10.961177 10.961177 10.883923 10.883923 10.806667 10.806667 10.806667 10.729412 10.729412 10.652158 10.652158 10.574903 10.574903 10.574903 10.574903 10.497647 10.497647 10.497647 10.497647 10.497647 10.420393 10.497647 10.497647 10.497647 10.497647 10.497647 10.420393 10.343138 10.2658825 10.2658825 10.188628 10.188628 10.188628 10.111373 10.111373 10.034119 10.034119 10.034119 9.956863 9.956863 9.956863 9.956863 9.956863 9.879608 9.879608 9.879608 9.802354 9.802354 9.802354 9.802354 9.725099 9.725099 9.647843 9.647843 9.647843 9.570589 9.570589 9.570589 9.570589 9.493334 9.493334 9.493334 9.493334 9.4160795 9.4160795 9.4160795 9.338824 9.338824 9.338824 9.338824 9.261569 9.261569 9.184315 9.184315 9.1070595 9.1070595 9.029804 9.029804 8.95255 8.95255 8.875295 8.798039 8.720785 8.64353 8.566276 8.48902 8.334511 8.18 8.025491 7.7937264 7.407451 7.407451 7.407451 7.3301964 7.3301964 7.252941 7.252941 7.1756864 7.1756864 7.0984316 7.021177 7.021177 6.9439216 6.9439216 6.866667 6.866667 6.789412 6.789412 6.7121572 6.7121572 6.634902 6.634902 6.557647 6.557647 6.557647 6.4803925 6.4803925 6.4031377 6.4031377 6.3258824 6.3258824 6.2486277 6.2486277 6.2486277 6.171373 6.171373 6.094118 6.094118 6.094118 6.016863 6.016863 5.939608 5.939608 5.939608 5.8623533 5.8623533 5.8623533 5.8623533 5.8623533 5.785098 5.785098 5.785098 5.785098 5.785098 5.785098 5.785098 5.785098 5.785098 5.785098 5.785098 5.785098 5.785098 5.785098 5.785098 5.785098 5.785098 5.8623533 5.8623533 5.8623533 5.8623533 5.8623533 5.8623533 5.939608 5.939608 5.939608 5.939608
16.214512 16.214512 16.214512 16.291765 16.291765 16.291765 16.36902 16.36902 16.36902 16.446276 16.446276 16.446276 16.446276 16.523531 16.523531 16.523531 16.523531 16.600786 16.600786 16.600786 16.600786 16.678041 16.678041 16.678041 15.982746 15.982746 15.982746 15.982746 15.982746 15.982746 15.982746 16.060001 16.060001 16.060001 16.060001 16.137257 16.137257 16.137257 16.214512 16.214512 16.214512 16.214512 16.291765 16.291765 16.291765 16.36902 16.36902 16.36902 16.36902 16.36902 16.446276 16.446276 16.446276 16.446276 16.446276 16.446276 16.446276 16.446276 16.446276 16.446276 16.446276 16.523531 16.446276 16.446276 16.446276 16.446276 16.446276 16.446276 16.446276 13.819609 13.819609 13.819609 13.742353 13.742353 13.742353 13.665098 13.665098 13.665098 13.665098 13.587844 13.587844 13.587844 13.510589 13.510589 13.510589 13.510589 13.433333 13.433333 13.433333 13.356079 13.356079 13.356079 13.278824 11.579216 11.579216 11.501962 11.424706 11.347451 11.347451 11.270197 11.192942 11.115686 11.115686 11.038432 10.729412 10.652158 10.574903 10.574903 10.574903 10.497647 10.497647 10.497647 10.497647 10.497647 10.497647 10.497647 10.497647 10.497647 10.574903 10.574903 10.574903 10.574903 10.652158 10.652158 10.652158 10.729412 10.729412 10.729412 10.729412 10.806667 10.806667 10.806667 10.883923 10.883923 10.883923 10.961177 10.961177 11.038432 11.038432 11.038432 11.115686 11.115686 11.192942 11.192942 11.192942 11.192942 11.115686 11.115686 11.038432 11.038432 11.038432 10.961177 10.961177 10.883923 10.883923 10.806667 10.806667 10.729412 10.729412 10.729412 10.652158 10.652158 10.574903 10.574903 10.574903 10.497647 10.497647 10.497647 10.497647 10.497647 10.420393 10.420393 10.420393 10.420393 10.420393 10.420393 10.420393 10.420393 10.343138 10.2658825 10.2658825 10.188628 10.188628 10.188628 10.111373 10.111373 10.034119 10.034119 10.034119 9.956863 9.956863 9.956863 9.879608 9.879608 9.879608 9.879608 9.879608 9.802354 9.802354 9.802354 9.725099 9.725099 9.725099 9.647843 9.647843 9.570589 9.570589 9.570589 9.570589 9.493334 9.493334 9.493334 9.493334 9.4160795 9.4160795 9.4160795 9.338824 9.338824 9.338824 9.338824 9.338824 9.338824 9.261569 9.184315 9.184315 9.1070595 9.1070595 9.029804 9.029804 8.95255 8.95255 8.875295 8.875295 8.798039 8.798039 8.720785 8.48902 8.566276 8.48902 8.411765 8.257256 8.102746 7.870981 7.716471 7.561961 7.407451 7.3301964 7.3301964 7.252941 7.252941 7.1756864 7.1756864 7.0984316 7.021177 7.021177 6.9439216 6.9439216 6.866667 6.866667 6.789412 6.789412 6.7121572 6.7121572 6.634902 6.634902 6.557647 6.557647 6.557647 6.4803925 6.4803925 6.4031377 6.4031377 6.3258824 6.3258824 6.2486277 6.2486277 6.2486277 6.171373 6.171373 6.094118 6.094118 6.094118 6.016863 6.016863 5.939608 5.939608 5.939608 5.8623533 5.8623533 5.8623533 5.8623533 5.8623533 5.8623533 5.8623533 5.8623533 5.8623533 5.8623533 5.8623533 5.785098 5.785098 5.785098 5.785098 5.785098 5.785098 5.785098 5.785098 5.785098 5.785098 5.8623533 5.8623533 5.8623533 5.8623533 5.8623533 5.8623533 5.939608 5.939608 5.939608 5.939608 5.939608
16.36902 16.36902 16.214512 16.291765 16.291765 16.291765 16.36902 16.36902 16.36902 16.36902 16.36902 16.446276 16.446276 16.446276 16.523531 16.523531 16.523531 16.523531 16.600786 16.600786 16.600786 16.600786 16.678041 16.678041 16.678041 15.982746 15.982746 15.982746 15.982746 15.982746 15.982746 15.982746 16.060001 16.060001 16.060001 16.060001 16.137257 16.137257 16.137257 16.137257 16.214512 16.214512 16.214512 16.214512 16.291765 16.291765 16.291765 16.291765 16.36902 16.36902 16.36902 16.36902 16.36902 16.36902 16.36902 16.36902 16.36902 16.36902 16.36902 16.36902 16.36902 16.36902 16.36902 16.36902 16.36902 16.36902 16.36902 16.36902 13.896863 13.819609 13.819609 13.742353 13.742353 13.742353 13.665098 13.665098 13.665098 13.665098 13.587844 13.587844 13.587844 13.510589 13.510589 13.510589 13.510589 13.433333 13.433333 13.433333 13.356079 13.356079 13.356079 13.356079 11.579216 11.579216 11.501962 11.424706 11.424706 11.347451 11.270197 11.192942 11.115686 11.115686 11.038432 10.961177 10.574903 10.574903 10.497647 10.497647 10.497647 10.497647 10.497647 10.497647 10.497647 10.497647 10.420393 10.497647 10.497647 10.497647 10.497647 10.574903 10.574903 10.574903 10.652158 10.652158 10.652158 10.652158 10.729412 10.729412 10.729412 10.729412 10.806667 10.806667 10.806667 10.883923 10.883923 10.883923 10.961177 10.961177 11.038432 11.038432 11.115686 11.115686 11.192942 11.192942 11.115686 11.115686 11.038432 11.038432 11.038432 10.961177 10.961177 10.883923 10.883923 10.806667 10.806667 10.729412 10.729412 10.729412 10.652158 10.652158 10.574903 10.574903 10.574903 10.497647 10.497647 10.497647 10.497647 10.420393 10.420393 10.420393 10.420393 10.343138 10.343138 10.420393 10.420393 10.420393 10.343138 10.2658825 10.2658825 10.188628 10.188628 10.188628 10.111373 10.111373 10.034119 10.034119 10.034119 9.956863 9.956863 9.956863 9.879608 9.879608 9.802354 9.802354 9.802354 9.802354 9.802354 9.725099 9.725099 9.725099 9.725099 9.647843 9.647843 9.570589 9.570589 9.570589 9.493334 9.493334 9.493334 9.493334 9.4160795 9.4160795 9.4160795 9.338824 9.338824 9.338824 9.338824 9.261569 9.338824 9.338824 9.261569 9.261569 9.184315 9.1070595 9.1070595 9.029804 9.029804 8.95255 8.95255 8.875295 8.875295 8.798039 8.798039 8.411765 8.411765 8.411765 8.48902 8.566276 8.48902 8.411765 8.334511 8.18 7.948236 7.7937264 7.639216 7.484706 7.3301964 7.3301964 7.252941 7.252941 7.1756864 7.1756864 7.0984316 7.021177 7.021177 6.9439216 6.9439216 6.866667 6.866667 6.789412 6.789412 6.7121572 6.7121572 6.634902 6.634902 6.557647 6.557647 6.557647 6.4803925 6.4803925 6.4031377 6.4031377 6.3258824 6.3258824 6.2486277 6.2486277 6.2486277 6.171373 6.171373 6.094118 6.094118 6.094118 6.016863 6.016863 5.939608 5.939608 5.939608 5.8623533 5.8623533 5.8623533 5.8623533 5.8623533 5.8623533 5.8623533 5.8623533 5.8623533 5.8623533 5.8623533 5.8623533 5.8623533 5.8623533 5.8623533 5.8623533 5.785098 5.785098 5.785098 5.785098 5.785098 5.8623533 5.8623533 5.8623533 5.8623533 5.8623533 5.8623533 5.939608 5.939608 5.939608 5.939608 5.939608
16.600786 16.446276 16.36902 16.36902 16.291765 16.291765 16.36902 16.36902 16.36902 16.36902 16.36902 16.36902 16.36902 16.446276 16.446276 16.446276 16.523531 16.523531 16.523531 16.523531 16.600786 16.600786 16.600786 16.600786 16.678041 15.982746 15.982746 15.905492 15.905492 15.905492 15.982746 15.982746 15.982746 15.982746 16.060001 16.060001 16.060001 16.060001 16.060001 16.137257 16.137257 16.137257 16.137257 16.214512 16.214512 16.214512 16.214512 16.214512 16.291765 16.291765 16.291765 16.291765 16.291765 16.291765 16.291765 16.291765 16.291765 16.291765 16.291765 16.291765 16.291765 16.291765 16.291765 16.291765 16.291765 16.291765 16.291765 16.291765 13.819609 13.819609 13.819609 13.742353 13.742353 13.665098 13.665098 13.665098 13.665098 13.587844 13.587844 13.587844 13.510589 13.510589 13.510589 13.510589 13.433333 13.433333 13.433333 13.356079 13.356079 13.356079 13.356079 11.579216 11.579216 11.579216 11.424706 11.424706 11.347451 11.270197 11.192942 11.192942 11.115686 11.038432 11.038432 10.574903 10.497647 10.497647 10.497647 10.497647 10.497647 10.497647 10.497647 10.420393 10.420393 10.420393 10.420393 10.420393 10.497647 10.497647 10.497647 10.497647 10.574903 10.574903 10.574903 10.652158 10.652158 10.652158 10.652158 10.729412 10.729412 10.729412 10.806667 10.806667 10.806667 10.806667 10.883923 10.883923 10.961177 10.961177 11.038432 11.038432 11.115686 11.115686 11.115686 11.115686 11.038432 11.038432 10.961177 10.961177 10.961177 10.883923 10.883923 10.806667 10.806667 10.729412 10.729412 10.652158 10.652158 10.652158 10.574903 10.574903 10.497647 10.497647 10.497647 10.497647 10.420393 10.420393 10.420393 10.420393 10.343138 10.343138 10.343138 10.343138 10.343138 10.343138 10.343138 10.343138 10.2658825 10.188628 10.188628 10.188628 10.111373 10.111373 10.034119 10.034119 10.034119 9.956863 9.956863 9.956863 9.879608 9.879608 9.802354 9.802354 9.802354 9.802354 9.802354 9.725099 9.725099 9.725099 9.647843 9.647843 9.647843 9.570589 9.570589 9.493334 9.493334 9.493334 9.4160795 9.4160795 9.4160795 9.4160795 9.338824 9.338824 9.338824 9.338824 9.261569 9.261569 9.261569 9.261569 9.261569 9.261569 9.184315 9.184315 9.1070595 9.029804 9.029804 8.95255 8.95255 8.875295 8.875295 8.798039 8.798039 8.720785 8.720785 8.411765 8.64353 8.566276 8.48902 8.48902 8.48902 8.411765 8.334511 8.257256 8.025491 7.870981 7.716471 7.561961 7.407451 7.3301964 7.252941 7.252941 7.1756864 7.1756864 7.0984316 7.021177 7.021177 6.9439216 6.9439216 6.866667 6.866667 6.789412 6.789412 6.7121572 6.7121572 6.634902 6.634902 6.557647 6.557647 6.557647 6.4803925 6.4803925 6.4031377 6.4031377 6.3258824 6.3258824 6.2486277 6.2486277 6.2486277 6.171373 6.171373 6.094118 6.094118 6.094118 6.016863 6.016863 5.939608 5.939608 5.939608 5.939608 5.939608 5.939608 5.8623533 5.8623533 5.8623533 5.8623533 5.8623533 5.8623533 5.8623533 5.8623533 5.8623533 5.8623533 5.8623533 5.8623533 5.8623533 5.8623533 5.8623533 5.8623533 5.8623533 5.8623533 5.8623533 5.8623533 5.8623533 5.8623533 5.8623533 5.939608 5.939608 5.939608 5.939608 5.939608 5.939608
