14.669412 14.669412 14.592157 14.592157 14.592157 14.592157 14.592157 14.592157 14.592157 14.592157 14.592157 14.592157 14.669412 14.669412 14.669412 14.669412 14.746667 14.746667 14.669412 14.669412 14.669412 4.8580394 4.8580394 4.8580394 4.8580394 4.8580394 4.8580394 4.8580394 4.8580394 4.8580394 4.8580394 4.8580394 4.8580394 4.8580394 4.8580394 4.8580394 4.8580394 4.8580394 4.8580394 4.8580394 4.8580394 4.8580394 4.8580394 4.8580394 4.8580394 4.8580394 4.8580394 4.8580394 4.8580394 4.8580394 4.8580394 4.8580394 4.8580394 4.8580394 4.8580394 4.8580394 4.8580394 4.8580394 4.8580394 4.8580394 14.746667 4.8580394 4.8580394 4.8580394 14.283137 14.205883 14.205883 14.128628 14.051373 14.051373 13.974118 13.974118 13.896863 13.819609 13.819609 13.742353 13.742353 13.665098 13.665098 13.587844 13.587844 13.510589 13.510589 13.433333 13.433333 13.356079 13.356079 13.278824 13.278824 13.201569 13.201569 13.124314 13.124314 13.047059 13.047059 12.969805 12.969805 12.8925495 12.8925495 12.815294 12.815294 12.73804 12.73804 12.73804 12.660785 12.660785 12.583529 12.583529 12.506275 12.506275 12.506275 12.583529 12.73804 12.8925495 13.047059 13.201569 13.356079 13.356079 13.356079 13.356079 13.278824 13.201569 13.201569 13.124314 13.124314 13.124314 13.124314 13.124314 13.124314 13.124314 13.124314 13.124314 13.124314 13.124314 13.124314 13.124314 13.124314 13.201569 13.278824 13.278824 13.278824 13.356079 13.433333 13.433333 13.510589 13.510589 13.510589 13.587844 13.587844 13.665098 13.665098 13.742353 14.128628 14.283137 14.360393 14.360393 14.360393 14.360393 14.437648 14.437648 14.437648 14.437648 14.514902 14.514902 14.514902 14.592157 14.669412 14.669412 14.669412 14.669412 14.669412 14.205883 14.205883 14.205883 14.128628 14.051373 14.051373 14.051373 13.974118 13.974118 13.896863 13.896863 13.819609 13.819609 13.742353 13.742353 13.665098 13.587844 13.587844 13.510589 13.510589 13.433333 13.356079 13.201569 13.124314 13.047059 12.969805 12.8925495 12.506275 12.42902 12.42902 12.42902 12.42902 12.351766 12.351766 12.351766 12.27451 12.27451 12.27451 12.27451 12.351766 12.351766 12.351766 12.27451 12.27451 12.27451 12.27451 12.27451 12.197255 12.197255 12.120001 12.120001 12.042746 12.042746 12.042746 11.96549 11.888236 11.888236 11.810981 11.810981 11.733726 11.733726 11.656471 11.656471 11.656471 11.579216 11.579216 11.501962 11.501962 11.424706 11.424706 11.347451 11.347451 11.270197 11.270197 11.192942 11.192942 11.115686 11.115686 11.038432 11.038432 10.961177 10.961177 10.883923 10.883923 10.806667 10.806667 10.806667 10.806667 10.729412 10.729412 10.729412 10.729412 10.729412 10.729412 10.729412 10.729412 10.652158 10.652158 10.652158 10.652158 10.574903 10.574903 10.574903 10.497647 10.497647 10.497647 10.497647 10.420393 10.420393 10.420393 10.420393 10.343138 10.343138 10.343138 10.343138 10.2658825 10.2658825 10.2658825 10.2658825 10.188628 10.188628 10.188628 10.188628 10.188628 10.111373 10.111373 10.111373 10.111373 10.034119 10.034119 10.034119 10.034119 10.034119 9.956863 9.956863 9.956863 9.956863 9.956863 9.956863 9.956863 9.956863 10.034119
14.669412 14.669412 14.669412 14.592157 14.592157 14.592157 14.592157 14.592157 14.592157 14.592157 14.592157 14.592157 14.592157 14.669412 14.669412 14.669412 14.746667 14.746667 14.669412 14.669412 14.669412 4.8580394 4.8580394 4.8580394 4.8580394 4.8580394 4.8580394 4.8580394 4.8580394 4.8580394 4.8580394 4.8580394 4.8580394 4.8580394 4.8580394 4.8580394 4.8580394 4.8580394 4.8580394 4.8580394 4.8580394 4.8580394 4.8580394 4.8580394 4.8580394 4.8580394 4.8580394 4.8580394 4.8580394 4.8580394 4.8580394 4.8580394 4.8580394 4.8580394 4.8580394 4.8580394 4.8580394 4.8580394 4.8580394 4.8580394 4.8580394 4.8580394 4.8580394 4.8580394 14.205883 14.128628 14.051373 13.974118 13.974118 13.896863 13.896863 13.819609 13.819609 13.742353 13.665098 13.665098 13.587844 13.587844 13.510589 13.510589 13.433333 13.433333 13.356079 13.356079 13.278824 13.278824 13.201569 13.201569 13.124314 13.124314 13.047059 13.047059 12.969805 12.969805 12.8925495 12.8925495 12.8925495 12.815294 12.815294 12.73804 12.73804 12.660785 12.660785 12.660785 12.660785 12.583529 12.583529 12.583529 12.506275 12.506275 12.506275 12.506275 12.660785 12.73804 12.8925495 13.047059 13.201569 13.278824 13.278824 13.278824 13.201569 13.124314 13.124314 13.124314 13.124314 13.124314 13.124314 13.124314 13.124314 13.124314 13.124314 13.124314 13.124314 13.124314 13.124314 13.124314 13.124314 13.201569 13.278824 13.278824 13.278824 13.356079 13.433333 13.433333 13.510589 13.510589 13.510589 13.587844 13.587844 13.665098 13.665098 13.742353 14.128628 14.283137 14.360393 14.360393 14.360393 14.360393 14.437648 14.437648 14.437648 14.437648 14.514902 14.514902 14.514902 14.592157 14.669412 14.669412 14.669412 14.669412 14.283137 14.205883 14.128628 14.128628 14.051373 14.051373 13.974118 13.974118 13.896863 13.896863 13.819609 13.819609 13.819609 13.742353 13.665098 13.665098 13.587844 13.587844 13.510589 13.433333 13.356079 13.278824 13.124314 13.047059 12.969805 12.8925495 12.506275 12.42902 12.42902 12.42902 12.42902 12.351766 12.351766 12.351766 12.27451 12.27451 12.27451 12.27451 12.197255 12.197255 12.197255 12.120001 12.120001 12.27451 12.27451 12.27451 12.27451 12.197255 12.197255 12.197255 12.120001 12.120001 12.042746 12.042746 11.96549 11.96549 11.888236 11.888236 11.810981 11.810981 11.733726 11.733726 11.656471 11.656471 11.579216 11.579216 11.501962 11.501962 11.424706 11.424706 11.424706 11.347451 11.347451 11.270197 11.270197 11.192942 11.192942 11.115686 11.115686 11.038432 11.038432 10.961177 10.961177 10.883923 10.883923 10.806667 10.806667 10.806667 10.806667 10.729412 10.729412 10.729412 10.729412 10.729412 10.729412 10.729412 10.652158 10.652158 10.652158 10.652158 10.574903 10.574903 10.574903 10.497647 10.497647 10.497647 10.497647 10.497647 10.420393 10.420393 10.420393 10.343138 10.343138 10.343138 10.343138 10.2658825 10.2658825 10.2658825 10.2658825 10.188628 10.188628 10.188628 10.188628 10.188628 10.111373 10.111373 10.111373 10.111373 10.034119 10.034119 10.034119 10.034119 10.034119 9.956863 9.956863 9.956863 9.956863 9.956863 9.956863 9.956863 10.034119 10.034119 10.034119
14.669412 14.669412 14.669412 14.669412 14.592157 14.592157 14.592157 14.592157 14.592157 14.592157 14.592157 14.592157 14.592157 14.669412 14.669412 14.669412 14.669412 14.746667 14.669412 14.669412 14.669412 14.592157 4.8580394 4.8580394 4.8580394 4.8580394 4.8580394 4.8580394 4.8580394 4.8580394 4.8580394 4.8580394 4.8580394 4.8580394 4.8580394 4.8580394 4.8580394 4.8580394 4.8580394 4.8580394 4.8580394 4.8580394 4.8580394 4.8580394 4.8580394 4.8580394 4.8580394 4.8580394 4.8580394 4.8580394 4.8580394 4.8580394 4.8580394 4.8580394 4.8580394 4.8580394 4.8580394 4.8580394 4.8580394 4.8580394 4.8580394 4.8580394 4.8580394 4.8580394 14.128628 14.051373 13.974118 13.896863 13.896863 13.819609 13.742353 13.742353 13.665098 13.665098 13.587844 13.510589 13.510589 13.433333 13.433333 13.356079 13.356079 13.278824 13.278824 13.201569 13.201569 13.124314 13.124314 13.047059 13.047059 12.969805 12.969805 12.8925495 12.8925495 12.8925495 12.815294 12.815294 12.815294 12.815294 12.73804 12.73804 12.73804 12.660785 12.660785 12.660785 12.660785 12.583529 12.583529 12.583529 12.506275 12.506275 12.506275 12.506275 12.583529 12.73804 12.815294 12.8925495 12.969805 13.201569 13.201569 13.124314 13.124314 13.124314 13.124314 13.124314 13.124314 13.124314 13.124314 13.124314 13.124314 13.124314 13.124314 13.124314 13.124314 13.124314 13.124314 13.124314 13.124314 13.201569 13.278824 13.278824 13.278824 13.356079 13.433333 13.433333 13.510589 13.510589 13.510589 13.587844 13.587844 13.665098 13.665098 13.742353 14.128628 14.360393 14.360393 14.360393 14.360393 14.360393 14.437648 14.437648 14.437648 14.514902 14.514902 14.514902 14.514902 14.592157 14.669412 14.669412 14.360393 14.283137 14.205883 14.128628 14.128628 14.051373 14.051373 13.974118 13.974118 13.896863 13.896863 13.819609 13.819609 13.742353 13.742353 13.665098 13.665098 13.587844 13.510589 13.510589 13.433333 13.278824 13.201569 13.047059 12.969805 12.8925495 12.8925495 12.42902 12.42902 12.42902 12.42902 12.351766 12.351766 12.351766 12.27451 12.27451 12.27451 12.27451 12.197255 12.197255 12.197255 12.120001 12.120001 12.120001 12.120001 12.042746 12.042746 12.042746 12.042746 12.197255 12.197255 12.197255 12.120001 12.120001 12.042746 12.042746 11.96549 11.888236 11.888236 11.888236 11.810981 11.810981 11.733726 11.733726 11.656471 11.656471 11.579216 11.579216 11.501962 11.501962 11.424706 11.424706 11.347451 11.347451 11.270197 11.270197 11.270197 11.192942 11.192942 11.115686 11.115686 11.038432 11.038432 10.961177 10.961177 10.883923 10.883923 10.806667 10.806667 10.806667 10.806667 10.806667 10.806667 10.729412 10.729412 10.729412 10.729412 10.652158 10.652158 10.652158 10.652158 10.574903 10.574903 10.574903 10.574903 10.497647 10.497647 10.497647 10.497647 10.420393 10.420393 10.420393 10.343138 10.343138 10.343138 10.343138 10.2658825 10.2658825 10.2658825 10.2658825 10.2658825 10.188628 10.188628 10.188628 10.188628 10.111373 10.111373 10.111373 10.111373 10.034119 10.034119 10.034119 10.034119 10.034119 10.034119 9.956863 9.956863 9.956863 9.956863 9.956863 9.956863 10.034119 10.034119 10.034119 11.038432
14.669412 14.669412 14.669412 14.669412 14.669412 14.592157 14.592157 14.592157 14.592157 14.592157 14.592157 14.592157 14.592157 14.592157 14.669412 14.669412 14.669412 14.746667 14.669412 14.669412 14.669412 14.592157 4.9352946 4.8580394 4.8580394 4.8580394 4.8580394 4.8580394 4.8580394 4.8580394 4.8580394 4.8580394 4.8580394 4.8580394 4.8580394 4.8580394 4.8580394 4.8580394 4.8580394 4.8580394 4.8580394 4.8580394 4.8580394 4.8580394 4.8580394 4.8580394 4.8580394 4.8580394 4.8580394 4.8580394 4.8580394 4.8580394 4.8580394 4.8580394 4.8580394 4.8580394 4.8580394 4.8580394 4.8580394 4.8580394 4.8580394 4.8580394 4.8580394 4.8580394 14.051373 13.974118 13.896863 13.819609 13.819609 13.742353 13.665098 13.587844 13.587844 13.510589 13.510589 13.433333 13.356079 13.356079 13.278824 13.278824 13.278824 13.201569 13.124314 13.124314 13.047059 13.047059 13.047059 12.969805 12.969805 12.969805 12.8925495 12.8925495 12.8925495 12.8925495 12.815294 12.815294 12.815294 12.815294 12.73804 12.73804 12.73804 12.660785 12.660785 12.660785 12.660785 12.583529 12.583529 12.583529 12.506275 12.506275 12.506275 12.506275 12.583529 12.660785 12.815294 12.8925495 12.969805 13.047059 13.124314 13.124314 13.124314 13.124314 13.124314 13.124314 13.124314 13.124314 13.124314 13.124314 13.124314 13.124314 13.124314 13.124314 13.124314 13.124314 13.124314 13.124314 13.124314 13.201569 13.278824 13.278824 13.278824 13.356079 13.433333 13.433333 13.510589 13.510589 13.587844 13.587844 13.665098 13.665098 13.665098 13.742353 14.128628 14.283137 14.360393 14.360393 14.360393 14.360393 14.437648 14.437648 14.437648 14.514902 14.514902 14.514902 14.514902 14.592157 14.437648 14.360393 14.283137 14.205883 14.128628 14.128628 14.051373 13.974118 13.974118 13.974118 13.896863 13.896863 13.819609 13.819609 13.742353 13.742353 13.665098 13.587844 13.587844 13.510589 13.510589 13.356079 13.201569 13.124314 13.047059 12.969805 12.8925495 12.506275 12.42902 12.42902 12.42902 12.351766 12.351766 12.351766 12.351766 12.27451 12.27451 12.27451 12.197255 12.197255 12.197255 12.120001 12.120001 12.120001 12.120001 12.042746 12.042746 12.042746 12.042746 11.96549 11.96549 11.96549 11.888236 11.888236 12.120001 12.042746 12.042746 11.96549 11.96549 11.888236 11.888236 11.810981 11.810981 11.733726 11.733726 11.656471 11.656471 11.579216 11.579216 11.501962 11.501962 11.424706 11.424706 11.424706 11.347451 11.347451 11.270197 11.270197 11.192942 11.192942 11.115686 11.115686 11.115686 11.038432 11.038432 10.961177 10.961177 10.883923 10.883923 10.806667 10.806667 10.806667 10.806667 10.806667 10.729412 10.729412 10.729412 10.729412 10.652158 10.652158 10.652158 10.652158 10.574903 10.574903 10.574903 10.574903 10.497647 10.497647 10.497647 10.497647 10.420393 10.420393 10.420393 10.343138 10.343138 10.343138 10.343138 10.2658825 10.2658825 10.2658825 10.2658825 10.2658825 10.188628 10.188628 10.188628 10.188628 10.111373 10.111373 10.111373 10.111373 10.034119 10.034119 10.034119 10.034119 10.034119 10.034119 10.034119 9.956863 9.956863 9.956863 9.956863 10.034119 10.034119 10.034119 10.034119 10.034119 11.038432
14.669412 14.669412 14.669412 14.669412 14.669412 14.669412 14.592157 14.592157 14.592157 14.592157 14.592157 14.592157 14.592157 14.592157 14.669412 14.669412 14.669412 14.669412 14.669412 14.669412 14.592157 14.592157 14.592157 4.9352946 4.9352946 4.8580394 4.8580394 4.8580394 4.8580394 4.8580394 4.8580394 4.8580394 4.8580394 4.8580394 4.8580394 4.8580394 4.8580394 4.8580394 4.8580394 4.8580394 4.8580394 4.8580394 4.8580394 4.8580394 4.8580394 4.8580394 4.8580394 4.8580394 4.8580394 4.8580394 4.8580394 4.8580394 4.8580394 4.8580394 4.8580394 4.8580394 4.8580394 4.8580394 4.8580394 4.8580394 4.8580394 4.8580394 4.8580394 4.8580394 13.974118 13.896863 13.819609 13.819609 13.742353 13.665098 13.587844 13.510589 13.433333 13.433333 13.356079 13.356079 13.278824 13.278824 13.201569 13.201569 13.124314 13.124314 13.124314 13.124314 13.047059 13.047059 13.047059 12.969805 12.969805 12.969805 12.8925495 12.8925495 12.8925495 12.8925495 12.815294 12.815294 12.815294 12.815294 12.73804 12.73804 12.73804 12.73804 12.660785 12.660785 12.660785 12.583529 12.583529 12.583529 12.583529 12.583529 12.583529 12.506275 12.583529 12.660785 12.73804 12.815294 12.969805 13.047059 13.124314 13.124314 13.124314 13.124314 13.124314 13.124314 13.124314 13.124314 13.124314 13.124314 13.124314 13.124314 13.124314 13.124314 13.124314 13.124314 13.124314 13.124314 13.124314 13.201569 13.278824 13.278824 13.278824 13.356079 13.433333 13.433333 13.510589 13.510589 13.587844 13.587844 13.665098 13.665098 13.665098 13.742353 14.128628 14.283137 14.360393 14.360393 14.360393 14.437648 14.437648 14.437648 14.437648 14.514902 14.514902 14.514902 14.592157 14.437648 14.360393 14.283137 14.283137 14.205883 14.128628 14.051373 13.974118 13.974118 13.896863 13.896863 13.819609 13.819609 13.742353 13.742353 13.665098 13.665098 13.587844 13.587844 13.510589 13.433333 13.278824 13.124314 13.047059 12.969805 12.8925495 12.815294 12.42902 12.42902 12.42902 12.351766 12.351766 12.351766 12.351766 12.27451 12.27451 12.27451 12.197255 12.197255 12.197255 12.120001 12.120001 12.120001 12.120001 12.042746 12.042746 12.042746 12.042746 11.96549 11.96549 11.96549 11.96549 11.888236 11.888236 11.888236 11.888236 11.888236 11.888236 11.96549 11.96549 11.888236 11.888236 11.810981 11.810981 11.733726 11.733726 11.656471 11.656471 11.579216 11.579216 11.501962 11.501962 11.424706 11.424706 11.424706 11.347451 11.347451 11.270197 11.270197 11.192942 11.192942 11.115686 11.115686 11.038432 11.038432 11.038432 10.961177 10.961177 10.883923 10.883923 10.806667 10.806667 10.806667 10.806667 10.729412 10.729412 10.729412 10.729412 10.652158 10.652158 10.652158 10.652158 10.574903 10.574903 10.574903 10.574903 10.497647 10.497647 10.497647 10.497647 10.420393 10.420393 10.420393 10.420393 10.343138 10.343138 10.343138 10.2658825 10.2658825 10.2658825 10.2658825 10.2658825 10.188628 10.188628 10.188628 10.188628 10.111373 10.111373 10.111373 10.111373 10.111373 10.034119 10.034119 10.034119 10.034119 10.034119 10.034119 10.034119 9.956863 9.956863 9.956863 10.034119 10.034119 10.034119 10.034119 10.034119 10.111373 11.115686
14.669412 14.669412 14.669412 14.669412 14.669412 14.669412 14.669412 14.592157 14.592157 14.592157 14.592157 14.592157 14.592157 14.592157 14.592157 14.669412 14.669412 14.669412 14.669412 14.669412 14.592157 14.592157 14.592157 14.514902 4.9352946 4.9352946 4.9352946 4.9352946 4.8580394 4.8580394 4.8580394 4.8580394 4.8580394 4.8580394 4.8580394 4.8580394 4.8580394 4.8580394 4.8580394 4.8580394 4.8580394 4.8580394 4.8580394 4.8580394 4.8580394 4.8580394 4.8580394 4.8580394 4.8580394 4.9352946 4.9352946 4.9352946 4.9352946 4.9352946 4.9352946 4.9352946 4.9352946 4.9352946 4.9352946 4.9352946 4.9352946 4.9352946 4.9352946 4.9352946 13.896863 13.819609 13.742353 13.665098 13.665098 13.587844 13.510589 13.433333 13.356079 13.356079 13.278824 13.278824 13.278824 13.201569 13.201569 13.201569 13.124314 13.124314 13.124314 13.124314 13.047059 13.047059 13.047059 12.969805 12.969805 12.969805 12.8925495 12.8925495 12.8925495 12.8925495 12.815294 12.815294 12.815294 12.815294 12.73804 12.73804 12.73804 12.73804 12.660785 12.660785 12.660785 12.583529 12.583529 12.583529 12.583529 12.583529 12.583529 12.583529 12.583529 12.660785 12.73804 12.815294 12.8925495 12.969805 13.124314 13.124314 13.124314 13.124314 13.124314 13.124314 13.124314 13.124314 13.124314 13.124314 13.124314 13.124314 13.124314 13.124314 13.124314 13.124314 13.124314 13.124314 13.124314 13.201569 13.201569 13.278824 13.278824 13.356079 13.433333 13.433333 13.510589 13.510589 13.587844 13.587844 13.665098 13.665098 13.742353 13.742353 14.051373 14.283137 14.360393 14.360393 14.360393 14.437648 14.437648 14.437648 14.437648 14.514902 14.514902 14.514902 14.514902 14.360393 14.360393 14.283137 14.205883 14.128628 14.051373 13.974118 13.974118 13.896863 13.896863 13.819609 13.819609 13.742353 13.742353 13.665098 13.665098 13.587844 13.510589 13.433333 13.278824 13.201569 13.047059 12.969805 12.8925495 12.815294 12.42902 12.42902 12.42902 12.351766 12.351766 12.351766 12.351766 12.27451 12.27451 12.27451 12.27451 12.197255 12.197255 12.197255 12.120001 12.120001 12.120001 12.042746 12.042746 12.042746 12.042746 12.042746 11.96549 11.96549 11.96549 11.96549 11.888236 11.888236 11.888236 11.888236 11.888236 11.888236 11.888236 11.888236 11.888236 11.888236 11.810981 11.810981 11.733726 11.733726 11.656471 11.656471 11.579216 11.579216 11.579216 11.501962 11.501962 11.424706 11.424706 11.347451 11.347451 11.270197 11.270197 11.192942 11.192942 11.115686 11.115686 11.115686 11.038432 11.038432 10.961177 10.961177 10.961177 10.883923 10.883923 10.806667 10.806667 10.806667 10.729412 10.729412 10.729412 10.729412 10.652158 10.652158 10.652158 10.652158 10.574903 10.574903 10.574903 10.574903 10.497647 10.497647 10.497647 10.497647 10.420393 10.420393 10.420393 10.420393 10.343138 10.343138 10.343138 10.343138 10.2658825 10.2658825 10.2658825 10.2658825 10.188628 10.188628 10.188628 10.188628 10.111373 10.111373 10.111373 10.111373 10.111373 10.111373 10.034119 10.034119 10.034119 10.034119 10.034119 10.034119 10.034119 9.956863 10.034119 10.034119 10.034119 10.034119 10.034119 10.111373 10.111373 10.111373 11.115686
14.669412 14.669412 14.669412 14.669412 14.669412 14.669412 14.669412 14.669412 14.592157 14.592157 14.592157 14.592157 14.592157 14.592157 14.592157 14.592157 14.669412 14.669412 14.669412 14.669412 14.592157 14.592157 14.592157 14.514902 4.9352946 4.9352946 4.9352946 4.9352946 4.9352946 4.9352946 4.9352946 4.9352946 4.9352946 4.9352946 4.9352946 4.9352946 4.9352946 4.9352946 4.9352946 4.9352946 4.8580394 4.8580394 4.8580394 4.8580394 4.8580394 4.9352946 4.9352946 4.9352946 4.9352946 4.9352946 4.9352946 4.9352946 4.9352946 4.9352946 4.9352946 4.9352946 4.9352946 4.9352946 4.9352946 14.128628 14.051373 14.051373 13.974118 4.9352946 13.819609 13.742353 13.665098 13.665098 13.587844 13.510589 13.433333 13.433333 13.356079 13.278824 13.278824 13.278824 13.278824 13.201569 13.201569 13.201569 13.124314 13.124314 13.124314 13.124314 13.047059 13.047059 13.047059 12.969805 12.969805 12.969805 12.8925495 12.8925495 12.8925495 12.8925495 12.8925495 12.815294 12.815294 12.815294 12.73804 12.73804 12.73804 12.73804 12.660785 12.660785 12.660785 12.583529 12.583529 12.583529 12.583529 12.583529 12.583529 12.583529 12.583529 12.583529 12.660785 12.815294 12.8925495 12.969805 13.047059 13.047059 13.124314 13.124314 13.124314 13.124314 13.124314 13.124314 13.124314 13.124314 13.124314 13.124314 13.124314 13.124314 13.124314 13.124314 13.124314 13.124314 13.124314 13.201569 13.201569 13.278824 13.278824 13.356079 13.433333 13.433333 13.510589 13.510589 13.587844 13.587844 13.665098 13.665098 13.742353 13.742353 14.051373 14.283137 14.360393 14.360393 14.437648 14.437648 14.437648 14.437648 14.437648 14.514902 14.514902 14.514902 14.437648 14.360393 14.283137 14.205883 14.128628 14.051373 14.051373 13.974118 13.896863 13.819609 13.819609 13.819609 13.742353 13.742353 13.665098 13.665098 13.587844 13.510589 13.356079 13.201569 13.124314 12.969805 12.8925495 12.8925495 12.815294 12.42902 12.42902 12.42902 12.351766 12.351766 12.351766 12.27451 12.27451 12.27451 12.27451 12.197255 12.197255 12.197255 12.120001 12.120001 12.120001 12.120001 12.120001 12.042746 12.042746 12.042746 12.042746 12.042746 11.96549 11.96549 11.96549 11.96549 11.888236 11.888236 11.888236 11.888236 11.888236 11.888236 11.888236 11.888236 11.888236 11.888236 11.810981 11.810981 11.733726 11.733726 11.656471 11.656471 11.579216 11.579216 11.501962 11.501962 11.424706 11.424706 11.424706 11.347451 11.347451 11.270197 11.270197 11.192942 11.192942 11.115686 11.115686 11.038432 11.038432 11.038432 10.961177 10.961177 10.883923 10.883923 10.806667 10.806667 10.806667 10.729412 10.729412 10.729412 10.729412 10.652158 10.652158 10.652158 10.652158 10.574903 10.574903 10.574903 10.574903 10.497647 10.497647 10.497647 10.497647 10.420393 10.420393 10.420393 10.420393 10.343138 10.343138 10.343138 10.343138 10.2658825 10.2658825 10.2658825 10.2658825 10.188628 10.188628 10.188628 10.188628 10.188628 10.111373 10.111373 10.111373 10.111373 10.111373 10.111373 10.034119 10.034119 10.034119 10.034119 10.034119 10.034119 10.034119 10.034119 10.034119 10.034119 10.034119 10.034119 10.111373 10.111373 10.111373 10.111373 11.115686
14.746667 14.746667 14.669412 14.669412 14.669412 14.669412 14.669412 14.669412 14.669412 14.592157 14.592157 14.592157 14.592157 14.592157 14.592157 14.592157 14.669412 14.669412 14.669412 14.669412 14.592157 14.592157 14.592157 14.514902 14.514902 4.9352946 4.9352946 4.9352946 4.9352946 4.9352946 4.9352946 4.9352946 4.9352946 4.9352946 4.9352946 4.9352946 4.9352946 4.9352946 4.9352946 4.9352946 4.9352946 4.9352946 4.9352946 4.9352946 4.9352946 4.9352946 4.9352946 4.9352946 4.9352946 4.9352946 4.9352946 4.9352946 4.9352946 4.9352946 4.9352946 14.437648 14.283137 14.205883 14.128628 14.051373 13.974118 13.974118 13.896863 13.819609 13.742353 13.665098 13.587844 13.587844 13.510589 13.510589 13.433333 13.356079 13.356079 13.278824 13.278824 13.278824 13.278824 13.201569 13.201569 13.201569 13.124314 13.124314 13.124314 13.124314 13.047059 13.047059 13.047059 12.969805 12.969805 12.969805 12.8925495 12.8925495 12.8925495 12.8925495 12.8925495 12.815294 12.815294 12.815294 12.73804 12.73804 12.73804 12.73804 12.660785 12.660785 12.660785 12.583529 12.583529 12.583529 12.583529 12.583529 12.583529 12.583529 12.583529 12.583529 12.660785 12.73804 12.8925495 12.969805 13.047059 13.047059 13.047059 13.047059 13.124314 13.124314 13.124314 13.124314 13.124314 13.124314 13.124314 13.124314 13.124314 13.124314 13.124314 13.124314 13.124314 13.124314 13.124314 13.201569 13.201569 13.278824 13.278824 13.356079 13.433333 13.433333 13.510589 13.510589 13.587844 13.587844 13.665098 13.665098 13.742353 13.742353 14.051373 14.283137 14.360393 14.437648 14.437648 14.437648 14.437648 14.437648 14.514902 14.514902 14.514902 14.437648 14.360393 14.283137 14.205883 14.205883 14.128628 14.051373 13.974118 13.896863 13.896863 13.819609 13.742353 13.742353 13.665098 13.665098 13.587844 13.510589 13.433333 13.278824 13.124314 13.047059 12.969805 12.8925495 12.8925495 12.42902 12.42902 12.42902 12.351766 12.351766 12.351766 12.351766 12.27451 12.27451 12.27451 12.27451 12.197255 12.197255 12.197255 12.197255 12.120001 12.120001 12.120001 12.120001 12.120001 12.042746 12.042746 12.042746 12.042746 12.042746 11.96549 11.96549 11.96549 11.96549 11.888236 11.888236 11.888236 11.888236 11.888236 11.888236 11.888236 11.888236 11.888236 11.810981 11.810981 11.733726 11.733726 11.733726 11.656471 11.656471 11.579216 11.579216 11.501962 11.501962 11.424706 11.424706 11.347451 11.347451 11.270197 11.270197 11.192942 11.192942 11.192942 11.115686 11.115686 11.038432 11.038432 11.038432 10.961177 10.961177 10.883923 10.806667 10.806667 10.806667 10.806667 10.729412 10.729412 10.729412 10.652158 10.652158 10.652158 10.652158 10.574903 10.574903 10.574903 10.574903 10.497647 10.497647 10.497647 10.497647 10.420393 10.420393 10.420393 10.420393 10.343138 10.343138 10.343138 10.343138 10.2658825 10.2658825 10.2658825 10.2658825 10.188628 10.188628 10.188628 10.188628 10.188628 10.111373 10.111373 10.111373 10.111373 10.111373 10.111373 10.034119 10.034119 10.034119 10.034119 10.034119 10.034119 10.034119 10.034119 10.034119 10.034119 10.034119 10.111373 10.111373 10.111373 10.111373 10.111373 11.192942 11.192942
14.746667 14.746667 14.746667 14.669412 14.669412 14.669412 14.669412 14.669412 14.669412 14.669412 14.592157 14.592157 14.592157 14.592157 14.592157 14.592157 14.592157 14.669412 14.669412 14.669412 14.592157 14.592157 14.514902 14.514902 14.514902 14.514902 4.9352946 4.9352946 4.9352946 4.9352946 4.9352946 4.9352946 4.9352946 4.9352946 4.9352946 4.9352946 4.9352946 4.9352946 4.9352946 4.9352946 4.9352946 4.9352946 4.9352946 4.9352946 4.9352946 4.9352946 4.9352946 4.9352946 4.9352946 4.9352946 4.9352946 4.9352946 4.9352946 14.592157 14.437648 14.283137 14.205883 14.128628 14.051373 13.974118 13.974118 13.896863 13.819609 13.742353 13.665098 13.665098 13.587844 13.510589 13.510589 13.433333 13.433333 13.356079 13.278824 13.278824 13.278824 13.278824 13.201569 13.201569 13.201569 13.201569 13.201569 13.124314 13.124314 13.124314 13.047059 13.047059 13.047059 12.969805 12.969805 12.969805 12.969805 12.8925495 12.8925495 12.8925495 12.8925495 12.815294 12.815294 12.815294 12.73804 12.73804 12.73804 12.73804 12.660785 12.660785 12.660785 12.660785 12.583529 12.583529 12.583529 12.583529 12.583529 12.583529 12.583529 12.583529 12.660785 12.73804 12.815294 12.8925495 13.047059 13.047059 13.047059 13.047059 13.047059 13.047059 13.124314 13.124314 13.124314 13.124314 13.124314 13.124314 13.124314 13.124314 13.124314 13.124314 13.124314 13.124314 13.124314 13.201569 13.201569 13.278824 13.278824 13.356079 13.433333 13.433333 13.510589 13.510589 13.587844 13.587844 13.665098 13.665098 13.742353 13.742353 14.051373 14.283137 14.360393 14.437648 14.437648 14.437648 14.437648 14.437648 14.514902 14.514902 14.437648 14.360393 14.360393 14.283137 14.205883 14.128628 14.051373 13.974118 13.974118 13.896863 13.819609 13.742353 13.742353 13.665098 13.665098 13.587844 13.433333 13.356079 13.201569 13.047059 12.969805 12.8925495 12.8925495 12.42902 12.42902 12.42902 12.42902 12.351766 12.351766 12.351766 12.351766 12.27451 12.27451 12.27451 12.27451 12.27451 12.197255 12.197255 12.197255 12.197255 12.120001 12.120001 12.120001 12.120001 12.042746 12.042746 12.042746 12.042746 12.042746 11.96549 11.96549 11.96549 11.96549 11.888236 11.888236 11.888236 11.888236 11.888236 11.888236 11.888236 11.888236 11.888236 11.888236 11.810981 11.810981 11.733726 11.733726 11.656471 11.656471 11.579216 11.579216 11.501962 11.501962 11.424706 11.424706 11.424706 11.347451 11.347451 11.270197 11.270197 11.192942 11.192942 11.115686 11.115686 11.115686 11.038432 11.038432 10.961177 10.961177 10.883923 10.883923 10.806667 10.806667 10.806667 10.729412 10.729412 10.729412 10.652158 10.652158 10.652158 10.652158 10.574903 10.574903 10.574903 10.574903 10.497647 10.497647 10.497647 10.497647 10.420393 10.420393 10.420393 10.420393 10.343138 10.343138 10.343138 10.343138 10.2658825 10.2658825 10.2658825 10.2658825 10.188628 10.188628 10.188628 10.188628 10.188628 10.188628 10.111373 10.111373 10.111373 10.111373 10.111373 10.111373 10.034119 10.034119 10.034119 10.034119 10.034119 10.034119 10.034119 10.034119 10.034119 10.111373 10.111373 10.111373 10.111373 10.111373 10.111373 10.188628 11.192942 11.192942
14.746667 14.746667 14.746667 14.746667 14.669412 14.669412 14.669412 14.669412 14.669412 14.669412 14.669412 14.592157 14.592157 14.592157 14.592157 14.592157 14.592157 14.669412 14.669412 14.669412 14.592157 14.592157 14.514902 14.592157 14.592157 14.592157 14.592157 14.592157 4.9352946 4.9352946 4.9352946 4.9352946 4.9352946 4.9352946 4.9352946 4.9352946 4.9352946 4.9352946 4.9352946 4.9352946 4.9352946 4.9352946 4.9352946 4.9352946 4.9352946 4.9352946 4.9352946 4.9352946 4.9352946 4.9352946 14.901176 14.746667 14.592157 14.437648 14.283137 14.205883 14.128628 14.051373 13.974118 13.896863 13.819609 13.819609 13.742353 13.665098 13.665098 13.587844 13.587844 13.510589 13.510589 13.433333 13.356079 13.356079 13.278824 13.278824 13.278824 13.278824 13.201569 13.201569 13.201569 13.201569 13.124314 13.124314 13.124314 13.124314 13.047059 13.047059 13.047059 12.969805 12.969805 12.969805 12.969805 12.8925495 12.8925495 12.8925495 12.8925495 12.815294 12.815294 12.815294 12.73804 12.73804 12.73804 12.73804 12.660785 12.660785 12.660785 12.660785 12.660785 12.660785 12.660785 12.660785 12.660785 12.583529 12.583529 12.583529 12.583529 12.73804 12.815294 12.8925495 12.969805 12.969805 12.969805 13.047059 13.047059 13.047059 13.047059 13.047059 13.124314 13.124314 13.124314 13.124314 13.124314 13.124314 13.124314 13.124314 13.124314 13.124314 13.124314 13.201569 13.201569 13.278824 13.278824 13.356079 13.433333 13.433333 13.510589 13.510589 13.587844 13.587844 13.665098 13.665098 13.742353 13.742353 14.051373 14.205883 14.437648 14.437648 14.437648 14.437648 14.437648 14.514902 14.514902 14.437648 14.437648 14.360393 14.283137 14.205883 14.128628 14.051373 14.051373 13.974118 13.896863 13.819609 13.819609 13.742353 13.665098 13.665098 13.510589 13.356079 13.278824 13.124314 12.42902 12.42902 12.351766 12.351766 12.351766 12.351766 12.351766 12.42902 12.351766 12.351766 12.351766 12.351766 12.351766 12.27451 12.27451 12.27451 12.27451 12.197255 12.197255 12.197255 12.197255 12.120001 12.120001 12.120001 12.120001 12.120001 12.042746 12.042746 12.042746 12.042746 12.042746 11.96549 11.96549 11.96549 11.96549 11.888236 11.888236 11.888236 11.888236 11.888236 11.888236 11.888236 11.888236 11.888236 11.888236 11.810981 11.810981 11.733726 11.733726 11.656471 11.656471 11.579216 11.579216 11.501962 11.501962 11.424706 11.424706 11.347451 11.347451 11.270197 11.270197 11.270197 11.192942 11.192942 11.115686 11.115686 11.038432 11.038432 10.961177 10.961177 10.883923 10.883923 10.806667 10.806667 10.806667 10.729412 10.729412 10.729412 10.729412 10.652158 10.652158 10.652158 10.652158 10.574903 10.574903 10.574903 10.574903 10.497647 10.497647 10.497647 10.497647 10.420393 10.420393 10.420393 10.343138 10.343138 10.343138 10.343138 10.2658825 10.2658825 10.2658825 10.2658825 10.188628 10.188628 10.188628 10.188628 10.188628 10.188628 10.111373 10.111373 10.111373 10.111373 10.111373 10.111373 10.111373 10.034119 10.034119 10.034119 10.034119 10.034119 10.034119 10.034119 10.034119 10.111373 10.111373 10.111373 10.111373 10.111373 10.188628 10.188628 10.188628 11.192942 11.192942
14.746667 14.746667 14.746667 14.746667 14.746667 14.746667 14.669412 14.669412 14.669412 14.669412 14.669412 14.669412 14.592157 14.592157 14.592157 14.592157 14.592157 14.592157 14.669412 14.592157 14.592157 14.592157 14.592157 14.592157 14.592157 14.592157 14.592157 14.592157 14.592157 14.592157 5.0125494 5.0125494 5.0125494 5.0125494 5.0125494 4.9352946 4.9352946 4.9352946 4.9352946 4.9352946 4.9352946 4.9352946 4.9352946 4.9352946 4.9352946 4.9352946 4.9352946 4.9352946 14.823922 14.746667 14.669412 14.592157 14.437648 14.283137 14.205883 14.128628 14.051373 13.974118 13.896863 13.896863 13.819609 13.742353 13.742353 13.665098 13.665098 13.587844 13.510589 13.510589 13.433333 13.433333 13.356079 13.278824 13.278824 13.278824 13.278824 13.201569 13.201569 13.201569 13.201569 13.201569 13.124314 13.124314 13.124314 13.124314 13.047059 13.047059 13.047059 12.969805 12.969805 12.969805 12.969805 12.8925495 12.8925495 12.8925495 12.8925495 12.815294 12.815294 12.815294 12.73804 12.73804 12.73804 12.73804 12.660785 12.660785 12.660785 12.660785 12.660785 12.660785 12.660785 12.660785 12.660785 12.660785 12.660785 12.660785 12.660785 12.660785 12.73804 12.8925495 12.969805 12.969805 12.969805 12.969805 12.969805 13.047059 13.047059 13.047059 13.047059 13.047059 13.124314 13.124314 13.124314 13.124314 13.124314 13.124314 13.124314 13.124314 13.124314 13.201569 13.201569 13.278824 13.278824 13.356079 13.433333 13.433333 13.510589 13.510589 13.587844 13.587844 13.665098 13.665098 13.742353 13.742353 14.051373 14.205883 14.437648 14.437648 14.437648 14.437648 14.437648 14.514902 14.514902 14.437648 14.360393 14.283137 14.205883 14.205883 14.128628 14.051373 13.974118 13.896863 13.896863 13.819609 13.742353 13.665098 13.665098 12.42902 12.42902 12.351766 12.351766 12.27451 12.27451 12.27451 12.197255 12.197255 12.197255 12.27451 12.27451 12.27451 12.351766 12.351766 12.351766 12.351766 12.27451 12.27451 12.27451 12.27451 12.27451 12.197255 12.197255 12.197255 12.197255 12.120001 12.120001 12.120001 12.120001 12.120001 12.042746 12.042746 12.042746 12.042746 12.042746 11.96549 11.96549 11.96549 11.96549 11.888236 11.888236 11.888236 11.888236 11.888236 11.888236 11.888236 11.888236 11.888236 11.810981 11.810981 11.733726 11.733726 11.656471 11.656471 11.579216 11.579216 11.579216 11.501962 11.424706 11.424706 11.424706 11.347451 11.347451 11.270197 11.270197 11.192942 11.192942 11.115686 11.115686 11.038432 11.038432 10.961177 10.961177 10.883923 10.883923 10.806667 10.806667 10.806667 10.729412 10.729412 10.729412 10.729412 10.652158 10.652158 10.652158 10.652158 10.574903 10.574903 10.574903 10.574903 10.497647 10.497647 10.497647 10.497647 10.420393 10.420393 10.420393 10.343138 10.343138 10.343138 10.343138 10.2658825 10.2658825 10.2658825 10.2658825 10.2658825 10.188628 10.188628 10.188628 10.188628 10.188628 10.188628 10.111373 10.111373 10.111373 10.111373 10.111373 10.111373 10.111373 10.034119 10.034119 10.034119 10.034119 10.034119 10.034119 10.111373 10.111373 10.111373 10.111373 10.111373 10.188628 10.188628 10.188628 10.188628 10.188628 11.192942 11.192942
14.823922 14.823922 14.746667 14.746667 14.746667 14.746667 14.746667 14.669412 14.669412 14.669412 14.669412 14.669412 14.669412 14.669412 14.592157 14.592157 14.592157 14.592157 14.669412 14.592157 14.592157 14.592157 14.592157 14.592157 14.592157 14.592157 14.592157 14.592157 14.592157 14.592157 14.592157 14.592157 14.592157 5.0125494 5.0125494 5.0125494 5.0125494 5.0125494 5.0125494 5.0125494 5.0125494 5.0125494 5.0125494 5.0125494 4.9352946 5.0125494 5.8623533 5.8623533 14.592157 14.592157 14.514902 14.437648 14.283137 14.205883 14.128628 14.051373 13.974118 13.974118 13.896863 13.819609 13.819609 13.742353 13.742353 13.665098 13.587844 13.587844 13.510589 13.510589 13.433333 13.356079 13.278824 13.278824 13.278824 13.278824 13.278824 13.201569 13.201569 13.201569 13.201569 13.124314 13.124314 13.124314 13.124314 13.124314 13.047059 13.047059 13.047059 12.969805 12.969805 12.969805 12.969805 12.8925495 12.8925495 12.8925495 12.8925495 12.815294 12.815294 12.815294 12.73804 12.73804 12.73804 12.73804 12.660785 12.660785 12.660785 12.660785 12.660785 12.660785 12.660785 12.660785 12.660785 12.660785 12.660785 12.660785 12.660785 12.660785 12.73804 12.815294 12.8925495 12.969805 12.969805 12.969805 12.969805 12.969805 12.969805 13.047059 13.047059 13.047059 13.047059 13.047059 13.047059 13.124314 13.124314 13.124314 13.124314 13.124314 13.124314 13.201569 13.201569 13.278824 13.278824 13.356079 13.433333 13.433333 13.510589 13.510589 13.587844 13.587844 13.665098 13.665098 13.742353 13.742353 14.051373 14.205883 14.437648 14.437648 14.437648 14.437648 14.514902 14.514902 14.437648 14.360393 14.360393 14.283137 14.205883 14.128628 14.051373 13.974118 13.974118 13.896863 12.42902 12.42902 12.351766 12.351766 12.27451 12.27451 12.27451 12.197255 12.197255 12.120001 12.120001 12.042746 12.120001 12.120001 12.120001 12.120001 12.197255 12.197255 12.197255 12.27451 12.27451 12.351766 12.27451 12.27451 12.27451 12.27451 12.27451 12.197255 12.197255 12.197255 12.197255 12.120001 12.120001 12.120001 12.120001 12.042746 12.042746 12.042746 12.042746 12.042746 11.96549 11.96549 11.96549 11.96549 11.888236 11.888236 11.888236 11.888236 11.888236 11.888236 11.888236 11.888236 11.888236 11.888236 11.810981 11.810981 11.733726 11.733726 11.656471 11.656471 11.579216 11.579216 11.501962 11.501962 11.424706 11.424706 11.424706 11.347451 11.347451 11.270197 11.270197 11.192942 11.192942 11.115686 11.115686 11.038432 11.038432 10.961177 10.961177 10.883923 10.883923 10.806667 10.806667 10.729412 10.729412 10.729412 10.729412 10.652158 10.652158 10.652158 10.652158 10.574903 10.574903 10.574903 10.574903 10.497647 10.497647 10.497647 10.497647 10.420393 10.420393 10.420393 10.420393 10.343138 10.343138 10.343138 10.2658825 10.2658825 10.2658825 10.2658825 10.2658825 10.188628 10.188628 10.188628 10.188628 10.188628 10.188628 10.188628 10.111373 10.111373 10.111373 10.111373 10.111373 10.111373 10.111373 10.034119 10.034119 10.034119 10.034119 10.034119 10.111373 10.111373 10.111373 10.111373 10.111373 10.188628 10.188628 10.188628 10.188628 10.188628 10.188628 11.192942 11.192942
14.823922 14.823922 14.823922 14.823922 14.746667 14.746667 14.746667 14.746667 14.746667 14.669412 14.669412 14.669412 14.669412 14.669412 14.669412 14.592157 14.592157 14.592157 14.592157 14.592157 14.592157 14.592157 14.592157 14.592157 14.592157 14.592157 14.592157 14.592157 14.592157 14.592157 14.592157 5.8623533 5.8623533 5.8623533 5.8623533 5.8623533 5.8623533 5.8623533 5.8623533 5.8623533 5.8623533 5.0125494 5.0125494 5.0125494 5.0125494 5.0125494 5.8623533 14.514902 14.437648 14.360393 14.283137 14.205883 14.128628 14.128628 14.051373 14.051373 13.974118 13.896863 13.896863 13.819609 13.819609 13.742353 13.665098 13.665098 13.587844 13.510589 13.510589 13.433333 13.356079 13.356079 13.278824 13.278824 13.278824 13.278824 13.201569 13.201569 13.201569 13.201569 13.201569 13.124314 13.124314 13.124314 13.124314 13.124314 13.047059 13.047059 13.047059 12.969805 12.969805 12.969805 12.969805 12.8925495 12.8925495 12.8925495 12.8925495 12.815294 12.815294 12.815294 12.73804 12.73804 12.73804 12.73804 12.660785 12.660785 12.660785 12.660785 12.660785 12.660785 12.660785 12.660785 12.660785 12.660785 12.660785 12.660785 12.660785 12.660785 12.73804 12.815294 12.8925495 12.8925495 12.8925495 12.969805 12.969805 12.969805 12.969805 12.969805 12.969805 13.047059 13.047059 13.047059 13.047059 13.047059 13.047059 13.124314 13.124314 13.124314 13.124314 13.201569 13.201569 13.278824 13.278824 13.356079 13.433333 13.433333 13.510589 13.510589 13.587844 13.587844 13.665098 13.665098 13.742353 13.819609 13.974118 14.205883 14.437648 14.437648 14.437648 14.514902 14.514902 14.437648 14.437648 14.360393 14.283137 14.205883 14.128628 12.42902 12.42902 12.351766 12.351766 12.351766 12.27451 12.27451 12.197255 12.197255 12.120001 12.120001 12.042746 12.042746 11.96549 11.96549 11.96549 11.96549 11.96549 12.042746 12.042746 12.042746 12.042746 12.120001 12.120001 12.120001 12.120001 12.197255 12.27451 12.27451 12.27451 12.27451 12.197255 12.197255 12.197255 12.197255 12.120001 12.120001 12.120001 12.120001 12.120001 12.042746 12.042746 12.042746 12.042746 12.042746 11.96549 11.96549 11.96549 11.96549 11.888236 11.888236 11.888236 11.888236 11.888236 11.888236 11.888236 11.888236 11.888236 11.810981 11.810981 11.733726 11.733726 11.656471 11.656471 11.656471 11.579216 11.579216 11.501962 11.501962 11.424706 11.424706 11.347451 11.347451 11.270197 11.270197 11.192942 11.192942 11.115686 11.115686 11.038432 11.038432 10.961177 10.961177 10.883923 10.883923 10.806667 10.806667 10.729412 10.729412 10.729412 10.729412 10.652158 10.652158 10.652158 10.652158 10.574903 10.574903 10.574903 10.574903 10.497647 10.497647 10.497647 10.497647 10.420393 10.420393 10.420393 10.420393 10.343138 10.343138 10.343138 10.2658825 10.2658825 10.2658825 10.2658825 10.2658825 10.2658825 10.188628 10.188628 10.188628 10.188628 10.188628 10.188628 10.188628 10.111373 10.111373 10.111373 10.111373 10.111373 10.111373 10.034119 10.034119 10.034119 10.034119 10.111373 10.111373 10.111373 10.111373 10.111373 10.188628 10.188628 10.188628 10.188628 10.188628 10.188628 10.2658825 11.192942 11.192942 11.115686
14.901176 14.901176 14.823922 14.823922 14.823922 14.823922 14.823922 14.746667 14.746667 14.746667 14.746667 14.669412 14.669412 14.669412 14.669412 14.669412 14.592157 14.592157 14.592157 14.592157 14.592157 14.592157 14.592157 14.592157 14.592157 14.592157 14.592157 14.669412 14.669412 14.669412 5.8623533 5.8623533 5.8623533 5.8623533 5.8623533 5.8623533 5.8623533 5.8623533 5.8623533 5.8623533 5.8623533 5.8623533 5.8623533 5.8623533 5.8623533 5.8623533 5.8623533 14.283137 14.205883 14.205883 14.205883 14.205883 14.128628 14.051373 14.051373 13.974118 13.974118 13.896863 13.819609 13.819609 13.742353 13.742353 13.665098 13.665098 13.587844 13.510589 13.433333 13.433333 13.356079 13.278824 13.278824 13.278824 13.278824 13.278824 13.201569 13.201569 13.201569 13.201569 13.124314 13.124314 13.124314 13.124314 13.124314 13.047059 13.047059 13.047059 13.047059 12.969805 12.969805 12.969805 12.969805 12.8925495 12.8925495 12.8925495 12.8925495 12.815294 12.815294 12.815294 12.815294 12.73804 12.73804 12.73804 12.660785 12.660785 12.660785 12.660785 12.660785 12.660785 12.660785 12.660785 12.660785 12.660785 12.660785 12.660785 12.660785 12.660785 12.660785 12.815294 12.8925495 12.8925495 12.8925495 12.8925495 12.8925495 12.969805 12.969805 12.969805 12.969805 12.969805 12.969805 13.047059 13.047059 13.047059 13.047059 13.047059 13.047059 13.124314 13.124314 13.201569 13.201569 13.278824 13.278824 13.356079 13.433333 13.433333 13.510589 13.510589 13.587844 13.587844 13.665098 13.742353 13.742353 13.819609 13.974118 14.205883 14.437648 14.437648 14.437648 14.514902 14.514902 14.437648 12.42902 12.42902 12.42902 12.351766 12.351766 12.27451 12.27451 12.197255 12.197255 12.120001 12.120001 12.042746 12.042746 12.042746 11.96549 11.888236 11.888236 11.888236 11.810981 11.810981 11.888236 11.888236 11.888236 11.888236 11.96549 11.96549 11.96549 11.96549 12.042746 12.042746 12.042746 12.042746 12.120001 12.197255 12.197255 12.27451 12.197255 12.197255 12.197255 12.197255 12.120001 12.120001 12.120001 12.120001 12.120001 12.042746 12.042746 12.042746 12.042746 12.042746 11.96549 11.96549 11.96549 11.96549 11.888236 11.888236 11.888236 11.888236 11.888236 11.888236 11.888236 11.888236 11.888236 11.810981 11.810981 11.733726 11.733726 11.656471 11.656471 11.579216 11.579216 11.501962 11.501962 11.424706 11.424706 11.424706 11.347451 11.347451 11.270197 11.192942 11.192942 11.115686 11.115686 11.038432 11.038432 10.961177 10.961177 10.883923 10.883923 10.806667 10.806667 10.729412 10.729412 10.729412 10.729412 10.652158 10.652158 10.652158 10.652158 10.574903 10.574903 10.574903 10.574903 10.497647 10.497647 10.497647 10.497647 10.420393 10.420393 10.420393 10.420393 10.343138 10.343138 10.343138 10.343138 10.2658825 10.2658825 10.2658825 10.2658825 10.2658825 10.188628 10.188628 10.188628 10.188628 10.188628 10.188628 10.188628 10.188628 10.111373 10.111373 10.111373 10.111373 10.111373 10.111373 10.034119 10.034119 10.034119 10.111373 10.111373 10.111373 10.111373 10.111373 10.188628 10.188628 10.188628 10.188628 10.188628 10.2658825 10.2658825 10.2658825 11.115686 11.115686 11.115686
14.978432 14.901176 14.901176 14.901176 14.901176 14.823922 14.823922 14.823922 14.823922 14.746667 14.746667 14.746667 14.746667 14.669412 14.669412 14.669412 14.669412 14.669412 14.592157 14.592157 14.592157 14.592157 14.592157 14.669412 14.669412 14.669412 14.669412 14.669412 5.939608 5.8623533 5.8623533 5.8623533 5.8623533 5.8623533 5.8623533 5.8623533 5.8623533 5.8623533 5.8623533 5.8623533 5.8623533 5.8623533 5.8623533 5.8623533 5.8623533 5.8623533 5.8623533 14.205883 14.205883 14.205883 14.205883 14.205883 14.128628 14.051373 14.051373 13.974118 13.896863 13.896863 13.819609 13.819609 13.742353 13.665098 13.665098 13.587844 13.510589 13.510589 13.433333 13.356079 13.356079 13.278824 13.278824 13.278824 13.278824 13.201569 13.201569 13.201569 13.201569 13.201569 13.124314 13.124314 13.124314 13.124314 13.124314 13.047059 13.047059 13.047059 13.047059 12.969805 12.969805 12.969805 12.969805 12.8925495 12.8925495 12.8925495 12.8925495 12.815294 12.815294 12.815294 12.815294 12.73804 12.73804 12.73804 12.73804 12.73804 12.73804 12.73804 12.660785 12.660785 12.660785 12.660785 12.660785 12.660785 12.660785 12.660785 12.660785 12.660785 12.660785 12.73804 12.815294 12.8925495 12.8925495 12.8925495 12.8925495 12.8925495 12.8925495 12.969805 12.969805 12.969805 12.969805 12.969805 12.969805 13.047059 13.047059 13.047059 12.969805 12.969805 13.124314 13.201569 13.201569 13.278824 13.278824 13.356079 13.433333 13.433333 13.510589 13.510589 13.587844 13.587844 13.665098 13.742353 13.742353 13.819609 13.974118 14.205883 14.360393 12.506275 12.42902 12.42902 12.351766 12.351766 12.27451 12.27451 12.197255 12.197255 12.120001 12.120001 12.042746 12.042746 12.042746 11.96549 11.96549 11.888236 11.888236 11.810981 11.810981 11.733726 11.733726 11.733726 11.733726 11.733726 11.733726 11.810981 11.810981 11.810981 11.810981 11.888236 11.888236 11.888236 11.888236 11.888236 11.96549 11.96549 12.042746 12.042746 12.120001 12.120001 12.197255 12.197255 12.197255 12.120001 12.120001 12.120001 12.120001 12.120001 12.042746 12.042746 12.042746 12.042746 12.042746 11.96549 11.96549 11.96549 11.96549 11.888236 11.888236 11.888236 11.888236 11.888236 11.888236 11.888236 11.888236 11.888236 11.810981 11.810981 11.810981 11.733726 11.733726 11.656471 11.656471 11.579216 11.579216 11.501962 11.501962 11.424706 11.424706 11.347451 11.347451 11.270197 11.270197 11.192942 11.115686 11.115686 11.038432 11.038432 11.038432 10.961177 10.883923 10.883923 10.806667 10.806667 10.729412 10.729412 10.729412 10.729412 10.652158 10.652158 10.652158 10.652158 10.574903 10.574903 10.574903 10.574903 10.497647 10.497647 10.497647 10.497647 10.420393 10.420393 10.420393 10.420393 10.343138 10.343138 10.343138 10.343138 10.2658825 10.2658825 10.2658825 10.2658825 10.2658825 10.2658825 10.188628 10.188628 10.188628 10.188628 10.188628 10.188628 10.188628 10.111373 10.111373 10.111373 10.111373 10.111373 10.111373 10.111373 10.034119 10.111373 10.111373 10.111373 10.111373 10.111373 10.188628 10.188628 10.188628 10.188628 10.188628 10.188628 10.2658825 10.2658825 10.2658825 10.2658825 11.115686 11.115686 11.115686
14.978432 14.978432 14.978432 14.901176 14.901176 14.901176 14.901176 14.823922 14.823922 14.823922 14.823922 14.823922 14.746667 14.746667 14.746667 14.746667 14.669412 14.669412 14.669412 14.669412 14.669412 14.669412 14.669412 14.669412 14.669412 14.669412 14.669412 5.939608 5.939608 5.939608 5.8623533 5.8623533 5.8623533 5.8623533 5.8623533 5.8623533 5.8623533 5.8623533 5.8623533 5.8623533 5.8623533 5.8623533 5.8623533 5.8623533 5.8623533 5.8623533 5.8623533 5.939608 14.205883 14.205883 14.205883 14.128628 14.128628 14.051373 13.974118 13.974118 13.896863 13.819609 13.819609 13.742353 13.742353 13.665098 13.587844 13.587844 13.510589 13.433333 13.433333 13.356079 13.278824 13.278824 13.278824 13.278824 13.278824 13.201569 13.201569 13.201569 13.201569 13.124314 13.124314 13.124314 13.124314 13.124314 13.047059 13.047059 13.047059 13.047059 13.047059 12.969805 12.969805 12.969805 12.969805 12.8925495 12.8925495 12.8925495 12.8925495 12.815294 12.815294 12.815294 12.815294 12.73804 12.73804 12.73804 12.73804 12.73804 12.73804 12.73804 12.73804 12.73804 12.73804 12.73804 12.660785 12.660785 12.660785 12.660785 12.660785 12.660785 12.660785 12.73804 12.815294 12.815294 12.8925495 12.8925495 12.8925495 12.8925495 12.8925495 12.8925495 12.8925495 12.969805 12.969805 12.969805 12.969805 12.969805 12.969805 12.8925495 12.8925495 12.8925495 12.8925495 13.124314 13.201569 13.278824 13.278824 13.356079 13.433333 13.433333 13.510589 13.510589 13.587844 13.587844 13.665098 13.742353 12.506275 12.42902 12.42902 12.351766 12.351766 12.27451 12.27451 12.27451 12.197255 12.197255 12.120001 12.120001 12.042746 12.042746 12.042746 11.96549 11.96549 11.888236 11.888236 11.888236 11.810981 11.810981 11.733726 11.733726 11.733726 11.656471 11.656471 11.656471 11.656471 11.656471 11.656471 11.733726 11.733726 11.733726 11.733726 11.733726 11.810981 11.810981 11.810981 11.810981 11.888236 11.888236 11.888236 11.888236 11.96549 12.042746 12.042746 12.120001 12.120001 12.120001 12.120001 12.120001 12.120001 12.120001 12.042746 12.042746 12.042746 12.042746 12.042746 11.96549 11.96549 11.96549 11.96549 11.888236 11.888236 11.888236 11.888236 11.888236 11.888236 11.888236 11.888236 11.888236 11.810981 11.810981 11.733726 11.733726 11.656471 11.656471 11.579216 11.579216 11.501962 11.501962 11.424706 11.424706 11.347451 11.347451 11.270197 11.270197 11.192942 11.192942 11.115686 11.115686 11.038432 11.038432 10.961177 10.961177 10.883923 10.883923 10.806667 10.806667 10.729412 10.729412 10.729412 10.652158 10.652158 10.652158 10.652158 10.574903 10.574903 10.574903 10.574903 10.497647 10.497647 10.497647 10.497647 10.420393 10.420393 10.420393 10.420393 10.343138 10.343138 10.343138 10.343138 10.2658825 10.2658825 10.2658825 10.2658825 10.2658825 10.2658825 10.2658825 10.188628 10.188628 10.188628 10.188628 10.188628 10.188628 10.188628 10.111373 10.111373 10.111373 10.111373 10.111373 10.111373 10.111373 10.111373 10.111373 10.111373 10.111373 10.111373 10.188628 10.188628 10.188628 10.188628 10.188628 10.2658825 10.2658825 10.2658825 10.2658825 10.2658825 10.2658825 11.115686 11.115686 11.115686
15.055687 14.978432 14.978432 14.978432 14.978432 14.978432 14.901176 14.901176 14.901176 14.901176 14.823922 14.823922 14.823922 14.823922 14.746667 14.746667 14.746667 14.746667 14.669412 14.669412 14.669412 14.669412 14.669412 14.669412 14.669412 14.669412 5.939608 5.939608 5.939608 5.939608 5.8623533 5.8623533 5.8623533 5.8623533 5.8623533 5.8623533 5.8623533 5.8623533 5.8623533 5.8623533 5.8623533 5.8623533 5.8623533 5.8623533 5.939608 5.939608 5.939608 5.939608 5.939608 5.939608 14.205883 14.128628 14.051373 14.051373 13.974118 13.974118 13.896863 13.819609 13.819609 13.742353 13.665098 13.665098 13.587844 13.510589 13.510589 13.433333 13.356079 13.278824 13.278824 13.278824 13.278824 13.278824 13.201569 13.201569 13.201569 13.201569 13.201569 13.124314 13.124314 13.124314 13.124314 13.047059 13.047059 13.047059 13.047059 13.047059 12.969805 12.969805 12.969805 12.969805 12.969805 12.8925495 12.8925495 12.8925495 12.8925495 12.815294 12.815294 12.815294 12.815294 12.73804 12.73804 12.73804 12.73804 12.73804 12.73804 12.73804 12.73804 12.73804 12.73804 12.73804 12.73804 12.73804 12.73804 12.73804 12.73804 12.660785 12.660785 12.660785 12.815294 12.815294 12.815294 12.815294 12.8925495 12.8925495 12.8925495 12.8925495 12.8925495 12.8925495 12.8925495 12.8925495 12.8925495 12.8925495 12.8925495 12.8925495 12.815294 12.815294 12.815294 12.815294 13.201569 13.201569 13.278824 13.278824 13.356079 13.433333 13.510589 13.510589 13.587844 13.587844 13.665098 12.506275 12.42902 12.42902 12.42902 12.351766 12.351766 12.27451 12.27451 12.197255 12.197255 12.120001 12.120001 12.120001 12.042746 12.042746 12.042746 11.96549 11.96549 11.888236 11.888236 11.810981 11.810981 11.810981 11.733726 11.733726 11.733726 11.656471 11.656471 11.656471 11.656471 11.579216 11.579216 11.579216 11.656471 11.656471 11.656471 11.656471 11.656471 11.733726 11.733726 11.733726 11.733726 11.810981 11.810981 11.810981 11.810981 11.888236 11.888236 11.96549 12.042746 12.042746 12.120001 12.120001 12.120001 12.120001 12.042746 12.042746 12.042746 12.042746 12.042746 11.96549 11.96549 11.96549 11.96549 11.888236 11.888236 11.888236 11.888236 11.888236 11.888236 11.888236 11.888236 11.888236 11.810981 11.810981 11.733726 11.733726 11.656471 11.656471 11.579216 11.579216 11.501962 11.501962 11.424706 11.424706 11.347451 11.270197 11.270197 11.192942 11.192942 11.115686 11.115686 11.038432 11.038432 10.961177 10.961177 10.883923 10.883923 10.806667 10.806667 10.729412 10.729412 10.729412 10.729412 10.652158 10.652158 10.652158 10.574903 10.574903 10.574903 10.574903 10.497647 10.497647 10.497647 10.497647 10.497647 10.420393 10.420393 10.420393 10.343138 10.343138 10.343138 10.343138 10.343138 10.2658825 10.2658825 10.2658825 10.2658825 10.2658825 10.2658825 10.2658825 10.188628 10.188628 10.188628 10.188628 10.188628 10.188628 10.188628 10.111373 10.111373 10.111373 10.111373 10.111373 10.111373 10.111373 10.111373 10.111373 10.111373 10.188628 10.188628 10.188628 10.188628 10.188628 10.188628 10.2658825 10.2658825 10.2658825 10.2658825 10.2658825 10.343138 11.115686 11.115686 11.115686 11.038432
15.055687 15.055687 15.055687 14.978432 14.978432 14.978432 14.978432 14.978432 14.901176 14.901176 14.901176 14.901176 14.823922 14.823922 14.823922 14.823922 14.823922 14.746667 14.746667 14.746667 14.746667 14.669412 14.669412 14.669412 14.669412 14.669412 5.939608 5.939608 5.939608 5.939608 5.939608 5.939608 5.939608 5.939608 5.939608 5.939608 5.939608 5.939608 5.939608 5.939608 5.939608 5.939608 5.939608 5.939608 5.939608 5.939608 5.939608 5.939608 5.939608 5.939608 5.939608 5.939608 5.939608 13.974118 13.974118 13.896863 13.896863 13.819609 13.742353 13.742353 13.665098 5.939608 13.587844 13.510589 13.433333 13.356079 13.356079 13.278824 13.278824 13.278824 13.278824 13.278824 13.201569 13.201569 13.201569 13.201569 13.124314 13.124314 13.124314 13.124314 13.124314 13.047059 13.047059 13.047059 13.047059 13.047059 12.969805 12.969805 12.969805 12.969805 12.969805 12.8925495 12.8925495 12.8925495 12.8925495 12.815294 12.815294 12.815294 12.815294 12.73804 12.73804 12.73804 12.73804 12.73804 12.73804 12.73804 12.73804 12.73804 12.73804 12.73804 12.73804 12.73804 12.73804 12.73804 12.73804 12.73804 12.73804 12.73804 12.73804 12.815294 12.815294 12.815294 12.815294 12.815294 12.815294 12.815294 12.815294 12.815294 12.815294 12.815294 12.815294 12.815294 12.815294 12.73804 12.73804 12.73804 12.73804 12.73804 12.73804 13.124314 13.278824 13.278824 13.356079 13.356079 13.433333 13.510589 13.510589 13.587844 13.665098 12.506275 12.42902 12.42902 12.351766 12.351766 12.351766 12.27451 12.27451 12.197255 12.197255 12.120001 12.120001 12.120001 12.042746 12.042746 11.96549 11.96549 11.888236 11.888236 11.888236 11.810981 11.810981 11.810981 11.733726 11.733726 11.656471 11.656471 11.656471 11.656471 11.656471 11.579216 11.579216 11.579216 11.579216 11.579216 11.579216 11.579216 11.579216 11.656471 11.656471 11.656471 11.656471 11.656471 11.733726 11.733726 11.733726 11.733726 11.810981 11.888236 11.888236 11.96549 11.96549 12.042746 12.042746 12.042746 12.042746 12.042746 12.042746 12.042746 11.96549 11.96549 11.96549 11.96549 11.888236 11.888236 11.888236 11.888236 11.888236 11.888236 11.888236 11.888236 11.888236 11.810981 11.810981 11.733726 11.733726 11.656471 11.656471 11.579216 11.579216 11.501962 11.501962 11.424706 11.424706 11.347451 11.347451 11.270197 11.192942 11.192942 11.115686 11.115686 11.038432 11.038432 10.961177 10.961177 10.883923 10.883923 10.806667 10.806667 10.729412 10.729412 10.729412 10.729412 10.652158 10.652158 10.652158 10.652158 10.574903 10.574903 10.574903 10.574903 10.497647 10.497647 10.497647 10.497647 10.420393 10.420393 10.420393 10.343138 10.343138 10.343138 10.343138 10.343138 10.2658825 10.2658825 10.2658825 10.2658825 10.2658825 10.2658825 10.2658825 10.2658825 10.188628 10.188628 10.188628 10.188628 10.188628 10.188628 10.188628 10.111373 10.111373 10.111373 10.111373 10.111373 10.111373 10.111373 10.111373 10.188628 10.188628 10.188628 10.188628 10.188628 10.188628 10.2658825 10.2658825 10.2658825 10.2658825 10.2658825 10.2658825 10.343138 10.343138 10.343138 11.115686 11.038432 11.038432
15.132942 15.132942 15.055687 15.055687 15.055687 15.055687 14.978432 14.978432 14.978432 14.978432 14.978432 14.901176 14.901176 14.901176 14.901176 14.823922 14.823922 14.823922 14.823922 14.746667 14.746667 14.746667 14.746667 14.746667 14.746667 14.746667 14.746667 5.939608 5.939608 5.939608 5.939608 5.939608 5.939608 5.939608 5.939608 5.939608 5.939608 5.939608 5.939608 5.939608 5.939608 5.939608 5.939608 5.939608 5.939608 5.939608 5.939608 5.939608 5.939608 5.939608 5.939608 5.939608 5.939608 5.939608 5.939608 5.939608 5.939608 5.939608 13.742353 5.939608 5.939608 5.939608 13.510589 13.510589 13.433333 13.356079 13.278824 13.278824 13.278824 13.278824 13.278824 13.201569 13.201569 13.201569 13.201569 13.201569 13.124314 13.124314 13.124314 13.124314 13.047059 13.047059 13.047059 13.047059 13.047059 12.969805 12.969805 12.969805 12.969805 12.969805 12.8925495 12.8925495 12.8925495 12.8925495 12.8925495 12.815294 12.815294 12.815294 12.815294 12.73804 12.73804 12.73804 12.73804 12.73804 12.73804 12.73804 12.73804 12.73804 12.73804 12.73804 12.73804 12.73804 12.73804 12.73804 12.73804 12.73804 12.73804 12.73804 12.73804 12.73804 12.73804 12.815294 12.815294 12.73804 12.73804 12.73804 12.73804 12.73804 12.73804 12.73804 12.73804 12.73804 12.660785 12.660785 12.660785 12.660785 12.660785 12.660785 12.660785 12.73804 13.124314 13.278824 13.278824 13.356079 13.433333 13.510589 13.510589 13.587844 12.506275 12.506275 12.42902 12.42902 12.351766 12.351766 12.27451 12.27451 12.27451 12.197255 12.197255 12.120001 12.120001 12.042746 12.042746 12.042746 11.96549 11.96549 11.888236 11.888236 11.888236 11.810981 11.810981 11.733726 11.733726 11.733726 11.656471 11.656471 11.656471 11.656471 11.656471 11.579216 11.579216 11.579216 11.579216 11.579216 11.501962 11.501962 11.501962 11.501962 11.579216 11.579216 11.579216 11.579216 11.656471 11.656471 11.656471 11.656471 11.733726 11.733726 11.810981 11.810981 11.888236 11.888236 11.96549 11.96549 12.042746 12.042746 12.042746 12.042746 11.96549 11.96549 11.96549 11.96549 11.888236 11.888236 11.888236 11.888236 11.888236 11.888236 11.888236 11.888236 11.888236 11.810981 11.810981 11.733726 11.733726 11.656471 11.656471 11.579216 11.501962 11.501962 11.424706 11.424706 11.347451 11.347451 11.270197 11.270197 11.192942 11.115686 11.115686 11.115686 11.038432 11.038432 10.961177 10.961177 10.883923 10.883923 10.806667 10.806667 10.729412 10.729412 10.729412 10.652158 10.652158 10.652158 10.652158 10.574903 10.574903 10.574903 10.574903 10.497647 10.497647 10.497647 10.497647 10.420393 10.420393 10.420393 10.343138 10.343138 10.343138 10.343138 10.343138 10.343138 10.2658825 10.2658825 10.2658825 10.2658825 10.2658825 10.2658825 10.2658825 10.188628 10.188628 10.188628 10.188628 10.188628 10.188628 10.188628 10.188628 10.111373 10.111373 10.111373 10.111373 10.111373 10.111373 10.111373 10.188628 10.188628 10.188628 10.188628 10.188628 10.188628 10.2658825 10.2658825 10.2658825 10.2658825 10.343138 10.343138 10.343138 10.343138 10.343138 10.343138 10.343138 11.038432 11.038432
15.055687 15.055687 15.055687 15.055687 15.055687 15.055687 15.055687 15.055687 14.978432 14.978432 14.978432 14.978432 14.978432 14.901176 14.901176 14.901176 14.901176 14.823922 14.823922 14.823922 14.823922 14.746667 14.746667 14.746667 14.746667 14.746667 14.746667 5.939608 5.939608 5.939608 5.939608 5.939608 5.939608 5.939608 5.939608 5.939608 5.939608 5.939608 5.939608 5.939608 5.939608 5.939608 5.939608 5.939608 5.939608 5.939608 5.939608 5.939608 5.939608 5.939608 5.939608 5.939608 5.939608 5.939608 5.939608 5.939608 5.939608 5.939608 5.939608 5.939608 5.939608 5.939608 13.510589 13.433333 13.356079 13.356079 13.278824 13.278824 13.278824 13.278824 13.278824 13.201569 13.201569 13.201569 13.201569 13.124314 13.124314 13.124314 13.124314 13.124314 13.047059 13.047059 13.047059 13.047059 13.047059 12.969805 12.969805 12.969805 12.969805 12.969805 12.8925495 12.8925495 12.8925495 12.8925495 12.8925495 12.815294 12.815294 12.815294 12.815294 12.815294 12.815294 12.73804 12.73804 12.73804 12.73804 12.73804 12.73804 12.73804 12.73804 12.73804 12.73804 12.73804 12.73804 12.73804 12.73804 12.73804 12.73804 12.73804 12.73804 12.73804 12.73804 12.73804 12.660785 12.660785 12.660785 12.660785 12.660785 12.660785 12.660785 12.660785 12.660785 12.583529 12.583529 12.583529 12.583529 12.583529 12.583529 12.583529 12.506275 12.506275 12.660785 13.047059 13.278824 13.356079 13.356079 13.433333 13.510589 13.510589 12.506275 12.506275 12.42902 12.42902 12.351766 12.351766 12.27451 12.27451 12.27451 12.197255 12.197255 12.120001 12.120001 12.042746 12.042746 12.042746 11.96549 11.96549 11.888236 11.888236 11.888236 11.810981 11.810981 11.733726 11.733726 11.733726 11.656471 11.656471 11.656471 11.656471 11.656471 11.579216 11.579216 11.579216 11.579216 11.579216 11.579216 11.501962 11.501962 11.501962 11.501962 11.501962 11.501962 11.501962 11.501962 11.579216 11.579216 11.579216 11.579216 11.656471 11.656471 11.733726 11.733726 11.810981 11.810981 11.888236 11.888236 11.96549 11.96549 12.042746 11.96549 11.96549 11.96549 11.96549 11.888236 11.888236 11.888236 11.888236 11.888236 11.888236 11.888236 11.888236 11.810981 11.810981 11.733726 11.733726 11.656471 11.656471 11.579216 11.579216 11.501962 11.424706 11.424706 11.347451 11.347451 11.270197 11.270197 11.192942 11.192942 11.115686 11.115686 11.038432 11.038432 10.961177 10.961177 10.883923 10.883923 10.806667 10.806667 10.729412 10.729412 10.729412 10.652158 10.652158 10.652158 10.652158 10.574903 10.574903 10.574903 10.574903 10.497647 10.497647 10.497647 10.497647 10.420393 10.420393 10.420393 10.420393 10.343138 10.343138 10.343138 10.343138 10.343138 10.343138 10.2658825 10.2658825 10.2658825 10.2658825 10.2658825 10.2658825 10.2658825 10.188628 10.188628 10.188628 10.188628 10.188628 10.188628 10.188628 10.111373 10.111373 10.111373 10.111373 10.111373 10.111373 10.188628 10.188628 10.188628 10.188628 10.188628 10.2658825 10.2658825 10.2658825 10.2658825 10.2658825 10.343138 10.343138 10.343138 10.343138 10.420393 10.420393 10.343138 10.343138 10.420393 10.420393 11.038432
14.978432 14.978432 14.978432 14.978432 14.978432 14.978432 14.978432 14.978432 14.978432 14.978432 14.978432 14.978432 14.978432 14.978432 14.978432 14.901176 14.901176 14.901176 14.901176 14.901176 14.823922 14.823922 14.823922 14.823922 14.823922 14.823922 14.823922 6.016863 5.939608 5.939608 5.939608 5.939608 5.939608 5.939608 5.939608 5.939608 5.939608 5.939608 5.939608 5.939608 5.939608 5.939608 5.939608 5.939608 5.939608 5.939608 5.939608 5.939608 5.939608 5.939608 5.939608 5.939608 5.939608 5.939608 5.939608 5.939608 5.939608 5.939608 5.939608 5.939608 5.939608 5.939608 13.433333 13.433333 13.356079 13.278824 13.278824 13.278824 13.278824 13.278824 13.201569 13.201569 13.201569 13.201569 13.201569 13.124314 13.124314 13.124314 13.124314 13.047059 13.047059 13.047059 13.047059 13.047059 12.969805 12.969805 12.969805 12.969805 12.969805 12.8925495 12.8925495 12.8925495 12.8925495 12.8925495 12.8925495 12.815294 12.815294 12.815294 12.815294 12.815294 12.815294 12.815294 12.815294 12.815294 12.815294 12.815294 12.73804 12.73804 12.73804 12.73804 12.73804 12.73804 12.73804 12.73804 12.660785 12.660785 12.660785 12.660785 12.660785 12.660785 12.660785 12.660785 12.583529 12.583529 12.583529 12.583529 12.583529 12.583529 12.583529 12.506275 12.506275 12.506275 12.506275 12.506275 12.506275 12.506275 12.506275 12.506275 12.42902 12.42902 12.42902 12.583529 12.969805 13.278824 13.356079 13.433333 13.433333 13.510589 12.506275 12.506275 12.42902 12.42902 12.351766 12.351766 12.27451 12.27451 12.197255 12.197255 12.120001 12.120001 12.120001 12.042746 12.042746 12.042746 11.96549 11.96549 11.888236 11.888236 11.810981 11.810981 11.810981 11.733726 11.733726 11.733726 11.656471 11.656471 11.656471 11.656471 11.656471 11.579216 11.579216 11.579216 11.579216 11.579216 11.579216 11.501962 11.501962 11.501962 11.501962 11.501962 11.424706 11.424706 11.424706 11.424706 11.501962 11.501962 11.501962 11.501962 11.579216 11.579216 11.656471 11.656471 11.733726 11.733726 11.810981 11.810981 11.888236 11.888236 11.96549 11.96549 11.96549 11.888236 11.888236 11.888236 11.888236 11.888236 11.888236 11.888236 11.888236 11.888236 11.810981 11.810981 11.733726 11.656471 11.656471 11.579216 11.579216 11.501962 11.501962 11.424706 11.424706 11.347451 11.270197 11.270197 11.192942 11.192942 11.115686 11.115686 11.038432 11.038432 10.961177 10.961177 10.883923 10.883923 10.806667 10.806667 10.729412 10.729412 10.729412 10.652158 10.652158 10.652158 10.652158 10.574903 10.574903 10.574903 10.574903 10.497647 10.497647 10.497647 10.497647 10.420393 10.420393 10.420393 10.420393 10.420393 10.343138 10.343138 10.343138 10.343138 10.343138 10.343138 10.2658825 10.2658825 10.2658825 10.2658825 10.2658825 10.2658825 10.2658825 10.188628 10.188628 10.188628 10.188628 10.188628 10.188628 10.188628 10.111373 10.111373 10.111373 10.111373 10.188628 10.188628 10.188628 10.188628 10.188628 10.2658825 10.2658825 10.2658825 10.2658825 10.2658825 10.343138 10.343138 10.343138 10.343138 10.420393 10.420393 10.420393 10.420393 10.420393 10.420393 10.420393 10.420393 10.420393
14.823922 14.823922 14.823922 14.901176 14.901176 14.901176 14.901176 14.901176 14.901176 14.901176 14.901176 14.901176 14.901176 14.901176 14.901176 14.901176 14.901176 14.901176 14.901176 14.901176 14.901176 14.901176 14.823922 14.823922 14.823922 14.823922 14.823922 14.360393 6.016863 6.016863 5.939608 5.939608 5.939608 5.939608 5.939608 5.939608 5.939608 5.939608 5.939608 5.939608 5.939608 5.939608 5.939608 5.939608 5.939608 5.939608 5.939608 5.939608 5.939608 5.939608 5.939608 5.939608 5.939608 5.939608 5.939608 5.939608 5.939608 5.939608 5.939608 5.939608 5.939608 6.016863 13.433333 13.356079 13.278824 13.278824 13.278824 13.278824 13.278824 13.278824 13.201569 13.201569 13.201569 13.201569 13.124314 13.124314 13.124314 13.124314 13.124314 13.047059 13.047059 13.047059 13.047059 13.047059 12.969805 12.969805 12.969805 12.969805 12.8925495 12.8925495 12.8925495 12.8925495 12.8925495 12.8925495 12.815294 12.815294 12.815294 12.815294 12.815294 12.73804 12.73804 12.73804 12.73804 12.73804 12.73804 12.73804 12.73804 12.660785 12.660785 12.660785 12.660785 12.660785 12.660785 12.660785 12.660785 12.660785 12.583529 12.583529 12.583529 12.583529 12.583529 12.583529 12.506275 12.506275 12.506275 12.506275 12.506275 12.506275 12.506275 12.506275 12.506275 12.42902 12.42902 12.42902 12.42902 12.42902 12.42902 12.42902 12.42902 12.42902 12.351766 12.42902 12.583529 12.969805 13.356079 13.356079 13.433333 12.583529 12.506275 12.506275 12.42902 12.42902 12.351766 12.351766 12.27451 12.27451 12.197255 12.197255 12.120001 12.120001 12.120001 12.042746 12.042746 11.96549 11.96549 11.888236 11.888236 11.888236 11.810981 11.810981 11.810981 11.733726 11.733726 11.733726 11.656471 11.656471 11.656471 11.656471 11.656471 11.579216 11.579216 11.579216 11.579216 11.579216 11.579216 11.501962 11.501962 11.501962 11.501962 11.501962 11.424706 11.424706 11.424706 11.424706 11.424706 11.424706 11.424706 11.424706 11.424706 11.501962 11.501962 11.579216 11.579216 11.656471 11.656471 11.733726 11.733726 11.810981 11.810981 11.888236 11.888236 11.888236 11.888236 11.888236 11.888236 11.888236 11.888236 11.888236 11.888236 11.810981 11.810981 11.733726 11.733726 11.656471 11.656471 11.579216 11.501962 11.501962 11.424706 11.424706 11.347451 11.347451 11.270197 11.270197 11.192942 11.115686 11.115686 11.038432 11.038432 11.038432 10.961177 10.883923 10.883923 10.806667 10.806667 10.729412 10.729412 10.729412 10.652158 10.652158 10.652158 10.652158 10.574903 10.574903 10.574903 10.574903 10.497647 10.497647 10.497647 10.497647 10.420393 10.420393 10.420393 10.420393 10.420393 10.420393 10.343138 10.343138 10.343138 10.343138 10.343138 10.343138 10.2658825 10.2658825 10.2658825 10.2658825 10.2658825 10.2658825 10.2658825 10.188628 10.188628 10.188628 10.188628 10.188628 10.188628 10.188628 10.188628 10.111373 10.188628 10.188628 10.188628 10.188628 10.188628 10.2658825 10.2658825 10.2658825 10.2658825 10.343138 10.343138 10.343138 10.343138 10.420393 10.420393 10.420393 10.420393 10.420393 10.420393 10.420393 10.420393 10.420393 10.420393 10.420393 10.420393
14.746667 14.746667 14.746667 14.746667 14.746667 14.746667 14.746667 14.746667 14.746667 14.746667 14.823922 14.823922 14.823922 14.823922 14.823922 14.823922 14.823922 14.823922 14.823922 14.823922 14.823922 14.823922 14.823922 14.823922 14.823922 14.823922 14.823922 14.360393 14.360393 6.016863 6.016863 6.016863 6.016863 6.016863 6.016863 6.016863 6.016863 6.016863 5.939608 5.939608 5.939608 5.939608 5.939608 5.939608 5.939608 5.939608 5.939608 5.939608 5.939608 6.016863 6.016863 6.016863 6.016863 6.016863 6.016863 6.016863 6.016863 6.016863 6.016863 6.016863 6.016863 6.016863 13.433333 13.356079 13.278824 13.278824 13.278824 13.278824 13.278824 13.201569 13.201569 13.201569 13.201569 13.201569 13.124314 13.124314 13.124314 13.124314 13.047059 13.047059 13.047059 13.047059 13.047059 12.969805 12.969805 12.969805 12.969805 12.969805 12.8925495 12.8925495 12.8925495 12.8925495 12.8925495 12.815294 12.815294 12.73804 12.73804 12.73804 12.73804 12.73804 12.73804 12.73804 12.660785 12.660785 12.660785 12.660785 12.660785 12.660785 12.660785 12.660785 12.660785 12.583529 12.583529 12.583529 12.583529 12.583529 12.583529 12.506275 12.506275 12.506275 12.506275 12.506275 12.506275 12.506275 12.506275 12.506275 12.42902 12.42902 12.42902 12.42902 12.42902 12.42902 12.42902 12.42902 12.42902 12.351766 12.351766 12.351766 12.351766 12.351766 12.351766 12.351766 12.42902 12.506275 12.8925495 13.356079 13.433333 12.583529 12.506275 12.506275 12.42902 12.42902 12.351766 12.27451 12.27451 12.27451 12.197255 12.197255 12.120001 12.120001 12.042746 12.042746 12.042746 11.96549 11.96549 11.888236 11.888236 11.888236 11.810981 11.810981 11.733726 11.733726 11.733726 11.733726 11.656471 11.656471 11.656471 11.656471 11.656471 11.579216 11.579216 11.579216 11.579216 11.579216 11.579216 11.501962 11.501962 11.501962 11.501962 11.501962 11.424706 11.424706 11.424706 11.424706 11.424706 11.424706 11.347451 11.347451 11.347451 11.424706 11.424706 11.424706 11.501962 11.501962 11.579216 11.579216 11.656471 11.656471 11.733726 11.733726 11.810981 11.810981 11.888236 11.888236 11.888236 11.888236 11.888236 11.888236 11.888236 11.810981 11.733726 11.733726 11.656471 11.656471 11.579216 11.579216 11.501962 11.424706 11.424706 11.347451 11.347451 11.270197 11.270197 11.192942 11.192942 11.115686 11.115686 11.038432 11.038432 10.961177 10.961177 10.883923 10.883923 10.806667 10.806667 10.729412 10.729412 10.652158 10.652158 10.652158 10.652158 10.574903 10.574903 10.574903 10.574903 10.497647 10.497647 10.497647 10.497647 10.497647 10.420393 10.420393 10.420393 10.420393 10.420393 10.343138 10.343138 10.343138 10.343138 10.343138 10.343138 10.2658825 10.2658825 10.2658825 10.2658825 10.2658825 10.2658825 10.2658825 10.188628 10.188628 10.188628 10.188628 10.188628 10.188628 10.188628 10.188628 10.188628 10.188628 10.188628 10.188628 10.2658825 10.2658825 10.2658825 10.2658825 10.2658825 10.343138 10.343138 10.343138 10.343138 10.420393 10.420393 10.420393 10.420393 10.420393 10.420393 10.420393 10.420393 10.420393 10.420393 10.420393 10.420393 10.420393 10.420393
14.669412 14.669412 14.669412 14.669412 14.669412 14.669412 14.669412 14.669412 14.669412 14.669412 14.669412 14.669412 14.669412 14.669412 14.669412 14.669412 14.669412 14.746667 14.746667 14.746667 14.746667 14.746667 14.746667 14.746667 14.746667 14.746667 14.746667 14.437648 14.360393 14.360393 6.016863 6.016863 6.016863 6.016863 6.016863 6.016863 6.016863 6.016863 6.016863 6.016863 6.016863 6.016863 6.016863 6.016863 6.016863 6.016863 6.016863 6.016863 6.016863 6.016863 6.016863 6.016863 6.016863 6.016863 6.016863 6.016863 13.665098 13.665098 13.587844 13.510589 13.510589 6.016863 13.356079 13.278824 13.278824 13.278824 13.278824 13.278824 13.278824 13.201569 13.201569 13.201569 13.201569 13.124314 13.124314 13.124314 13.124314 13.124314 13.047059 13.047059 13.047059 13.047059 13.047059 12.969805 12.969805 12.969805 12.969805 12.8925495 12.8925495 12.8925495 12.8925495 12.815294 12.815294 12.73804 12.73804 12.73804 12.73804 12.660785 12.660785 12.660785 12.660785 12.660785 12.660785 12.660785 12.660785 12.660785 12.583529 12.583529 12.583529 12.583529 12.583529 12.583529 12.506275 12.506275 12.506275 12.506275 12.506275 12.506275 12.506275 12.506275 12.506275 12.42902 12.42902 12.42902 12.42902 12.42902 12.42902 12.42902 12.42902 12.42902 12.351766 12.351766 12.351766 12.351766 12.351766 12.351766 12.351766 12.351766 12.351766 12.351766 12.351766 12.351766 12.42902 12.506275 12.583529 12.8925495 12.660785 12.583529 12.506275 12.506275 12.42902 12.351766 12.351766 12.27451 12.27451 12.27451 12.197255 12.197255 12.120001 12.120001 12.042746 12.042746 12.042746 11.96549 11.96549 11.888236 11.888236 11.888236 11.810981 11.810981 11.733726 11.733726 11.733726 11.733726 11.656471 11.656471 11.656471 11.656471 11.656471 11.579216 11.579216 11.579216 11.579216 11.579216 11.579216 11.501962 11.501962 11.501962 11.501962 11.501962 11.424706 11.424706 11.424706 11.424706 11.424706 11.424706 11.347451 11.347451 11.347451 11.347451 11.347451 11.347451 11.347451 11.424706 11.424706 11.501962 11.501962 11.579216 11.579216 11.656471 11.733726 11.733726 11.810981 11.888236 11.888236 11.888236 11.888236 11.888236 11.810981 11.810981 11.733726 11.656471 11.656471 11.579216 11.579216 11.501962 11.501962 11.424706 11.424706 11.347451 11.270197 11.270197 11.192942 11.192942 11.115686 11.115686 11.038432 11.038432 10.961177 10.961177 10.883923 10.883923 10.806667 10.806667 10.729412 10.729412 10.652158 10.652158 10.652158 10.652158 10.574903 10.574903 10.574903 10.574903 10.497647 10.497647 10.497647 10.497647 10.497647 10.420393 10.420393 10.420393 10.420393 10.420393 10.420393 10.343138 10.343138 10.343138 10.343138 10.343138 10.343138 10.2658825 10.2658825 10.2658825 10.2658825 10.2658825 10.2658825 10.2658825 10.2658825 10.2658825 10.188628 10.188628 10.188628 10.188628 10.188628 10.188628 10.188628 10.188628 10.2658825 10.2658825 10.2658825 10.2658825 10.343138 10.343138 10.343138 10.343138 10.420393 10.420393 10.420393 10.420393 10.497647 10.497647 10.497647 10.420393 10.420393 10.420393 10.420393 10.420393 10.420393 10.420393 10.497647 10.497647 10.497647
14.514902 14.514902 14.514902 14.514902 14.514902 14.592157 14.592157 14.592157 14.592157 14.592157 14.592157 14.592157 14.592157 14.592157 14.592157 14.592157 14.592157 14.592157 14.592157 14.592157 14.592157 14.592157 14.592157 14.669412 14.669412 14.669412 14.669412 14.437648 14.437648 14.360393 14.360393 6.016863 6.016863 6.016863 6.016863 6.016863 6.016863 6.016863 6.016863 6.016863 6.016863 6.016863 6.016863 6.016863 6.016863 6.016863 6.016863 6.016863 6.016863 6.016863 6.016863 6.016863 6.016863 13.819609 13.742353 13.742353 13.665098 13.587844 13.510589 13.510589 13.433333 13.356079 13.356079 13.278824 13.278824 13.278824 13.278824 13.278824 13.201569 13.201569 13.201569 13.201569 13.201569 13.124314 13.124314 13.124314 13.124314 13.047059 13.047059 13.047059 13.047059 13.047059 12.969805 12.969805 12.969805 12.8925495 12.8925495 12.8925495 12.815294 12.815294 12.73804 12.73804 12.73804 12.660785 12.660785 12.660785 12.660785 12.660785 12.660785 12.660785 12.660785 12.583529 12.583529 12.583529 12.583529 12.583529 12.583529 12.506275 12.506275 12.506275 12.506275 12.506275 12.506275 12.506275 12.506275 12.506275 12.42902 12.42902 12.42902 12.42902 12.42902 12.42902 12.42902 12.42902 12.42902 12.351766 12.351766 12.351766 12.351766 12.351766 12.351766 12.351766 12.351766 12.351766 12.351766 12.351766 12.351766 12.351766 12.351766 12.351766 12.351766 12.351766 12.42902 12.506275 12.583529 12.660785 12.660785 12.583529 12.506275 12.506275 12.42902 12.351766 12.351766 12.27451 12.27451 12.197255 12.197255 12.120001 12.120001 12.120001 12.042746 12.042746 12.042746 11.96549 11.96549 11.888236 11.888236 11.810981 11.810981 11.810981 11.733726 11.733726 11.733726 11.733726 11.656471 11.656471 11.656471 11.656471 11.656471 11.656471 11.579216 11.579216 11.579216 11.579216 11.579216 11.501962 11.501962 11.501962 11.501962 11.501962 11.424706 11.424706 11.424706 11.424706 11.424706 11.424706 11.347451 11.347451 11.347451 11.347451 11.347451 11.347451 11.347451 11.347451 11.424706 11.424706 11.501962 11.501962 11.579216 11.656471 11.656471 11.733726 11.733726 11.810981 11.888236 11.888236 11.888236 11.810981 11.810981 11.733726 11.733726 11.656471 11.579216 11.579216 11.501962 11.501962 11.424706 11.424706 11.347451 11.347451 11.270197 11.192942 11.192942 11.115686 11.115686 11.038432 11.038432 10.961177 10.961177 10.883923 10.883923 10.806667 10.806667 10.729412 10.729412 10.729412 10.652158 10.652158 10.652158 10.652158 10.574903 10.574903 10.574903 10.574903 10.497647 10.497647 10.497647 10.497647 10.497647 10.420393 10.420393 10.420393 10.420393 10.420393 10.420393 10.343138 10.343138 10.343138 10.343138 10.343138 10.343138 10.2658825 10.2658825 10.2658825 10.2658825 10.2658825 10.2658825 10.2658825 10.2658825 10.2658825 10.2658825 10.2658825 10.2658825 10.188628 10.188628 10.2658825 10.2658825 10.2658825 10.2658825 10.2658825 10.343138 10.343138 10.343138 10.343138 10.420393 10.420393 10.420393 10.420393 10.497647 10.497647 10.497647 10.497647 10.497647 10.497647 10.497647 10.497647 10.497647 10.420393 10.497647 10.497647 10.497647 10.497647 10.497647
14.437648 14.437648 14.437648 14.437648 14.437648 14.437648 14.437648 14.437648 14.437648 14.437648 14.437648 14.514902 14.514902 14.514902 14.514902 14.514902 14.514902 14.514902 14.514902 14.514902 14.514902 14.514902 14.514902 14.514902 14.514902 14.514902 14.514902 14.514902 14.437648 14.437648 14.360393 14.360393 6.016863 6.016863 6.016863 6.016863 6.016863 6.016863 6.016863 6.016863 6.016863 6.016863 6.016863 6.016863 6.016863 6.016863 6.016863 6.016863 6.016863 6.016863 13.974118 13.896863 13.819609 13.819609 13.742353 13.665098 13.665098 13.587844 13.510589 13.433333 13.433333 13.356079 13.278824 13.278824 13.278824 13.278824 13.278824 13.278824 13.201569 13.201569 13.201569 13.201569 13.124314 13.124314 13.124314 13.124314 13.124314 13.047059 13.047059 13.047059 13.047059 12.969805 12.969805 12.8925495 12.8925495 12.8925495 12.815294 12.815294 12.73804 12.73804 12.660785 12.660785 12.660785 12.660785 12.660785 12.660785 12.583529 12.583529 12.583529 12.583529 12.583529 12.583529 12.506275 12.506275 12.506275 12.506275 12.506275 12.506275 12.506275 12.506275 12.506275 12.42902 12.42902 12.42902 12.42902 12.42902 12.42902 12.42902 12.42902 12.42902 12.351766 12.351766 12.351766 12.351766 12.351766 12.351766 12.27451 12.27451 12.27451 12.27451 12.27451 12.27451 12.351766 12.351766 12.351766 12.351766 12.351766 12.351766 12.351766 12.351766 12.351766 12.351766 12.42902 12.506275 12.583529 12.660785 12.660785 12.583529 12.506275 12.42902 12.42902 12.351766 12.351766 12.27451 12.27451 12.197255 12.197255 12.120001 12.120001 12.120001 12.042746 12.042746 11.96549 11.96549 11.888236 11.888236 11.888236 11.810981 11.810981 11.810981 11.733726 11.733726 11.733726 11.733726 11.656471 11.656471 11.656471 11.656471 11.656471 11.656471 11.579216 11.579216 11.579216 11.579216 11.579216 11.501962 11.501962 11.501962 11.501962 11.501962 11.424706 11.424706 11.424706 11.424706 11.424706 11.424706 11.347451 11.347451 11.347451 11.347451 11.347451 11.347451 11.347451 11.347451 11.347451 11.424706 11.424706 11.501962 11.579216 11.579216 11.656471 11.656471 11.733726 11.810981 11.810981 11.888236 11.810981 11.810981 11.733726 11.733726 11.656471 11.656471 11.579216 11.501962 11.501962 11.424706 11.424706 11.347451 11.347451 11.270197 11.270197 11.192942 11.115686 11.115686 11.115686 11.038432 11.038432 10.961177 10.961177 10.883923 10.883923 10.806667 10.806667 10.729412 10.729412 10.652158 10.652158 10.652158 10.652158 10.574903 10.574903 10.574903 10.574903 10.497647 10.497647 10.497647 10.497647 10.497647 10.497647 10.420393 10.420393 10.420393 10.420393 10.420393 10.420393 10.343138 10.343138 10.343138 10.343138 10.343138 10.343138 10.343138 10.343138 10.343138 10.2658825 10.2658825 10.2658825 10.2658825 10.2658825 10.2658825 10.2658825 10.2658825 10.2658825 10.2658825 10.2658825 10.2658825 10.2658825 10.2658825 10.343138 10.343138 10.343138 10.420393 10.420393 10.420393 10.420393 10.497647 10.497647 10.497647 10.497647 10.497647 10.497647 10.497647 10.497647 10.497647 10.497647 10.497647 10.497647 10.497647 10.497647 10.497647 10.497647 10.497647 10.497647
14.360393 14.360393 14.360393 14.360393 14.360393 14.360393 14.360393 14.360393 14.360393 14.360393 14.360393 14.360393 14.360393 14.360393 14.360393 14.360393 14.437648 14.437648 14.437648 14.437648 14.437648 14.437648 14.437648 14.437648 14.437648 14.437648 14.437648 14.437648 14.437648 14.437648 14.437648 14.360393 14.360393 14.360393 6.094118 6.094118 6.094118 6.094118 6.094118 6.094118 6.094118 6.094118 6.094118 6.016863 6.016863 6.016863 6.016863 6.016863 14.051373 13.974118 13.974118 13.896863 13.819609 13.742353 13.665098 13.665098 13.587844 13.510589 13.510589 13.433333 13.356079 13.356079 13.278824 13.278824 13.278824 13.278824 13.278824 13.201569 13.201569 13.201569 13.201569 13.201569 13.124314 13.124314 13.124314 13.124314 13.047059 13.047059 12.969805 12.969805 12.969805 12.8925495 12.8925495 12.815294 12.815294 12.73804 12.73804 12.73804 12.660785 12.660785 12.583529 12.583529 12.583529 12.583529 12.583529 12.583529 12.583529 12.506275 12.506275 12.506275 12.506275 12.506275 12.506275 12.506275 12.506275 12.506275 12.42902 12.42902 12.42902 12.42902 12.42902 12.42902 12.42902 12.42902 12.42902 12.351766 12.351766 12.351766 12.351766 12.351766 12.351766 12.351766 12.27451 12.27451 12.27451 12.27451 12.27451 12.27451 12.27451 12.27451 12.27451 12.27451 12.27451 12.351766 12.351766 12.351766 12.351766 12.351766 12.351766 12.351766 12.351766 12.351766 12.42902 12.506275 12.583529 12.660785 12.660785 12.583529 12.506275 12.42902 12.42902 12.351766 12.351766 12.27451 12.27451 12.197255 12.197255 12.120001 12.120001 12.042746 12.042746 12.042746 11.96549 11.96549 11.888236 11.888236 11.888236 11.810981 11.810981 11.733726 11.733726 11.733726 11.733726 11.733726 11.656471 11.656471 11.656471 11.656471 11.656471 11.656471 11.579216 11.579216 11.579216 11.579216 11.579216 11.501962 11.501962 11.501962 11.501962 11.501962 11.424706 11.424706 11.424706 11.424706 11.424706 11.424706 11.424706 11.347451 11.347451 11.347451 11.347451 11.347451 11.347451 11.347451 11.424706 11.424706 11.424706 11.424706 11.501962 11.579216 11.579216 11.656471 11.733726 11.733726 11.810981 11.810981 11.810981 11.810981 11.733726 11.656471 11.656471 11.579216 11.579216 11.501962 11.424706 11.424706 11.347451 11.347451 11.270197 11.270197 11.192942 11.192942 11.115686 11.115686 11.038432 11.038432 10.961177 10.961177 10.883923 10.883923 10.806667 10.806667 10.729412 10.729412 10.652158 10.652158 10.652158 10.652158 10.574903 10.574903 10.574903 10.574903 10.497647 10.497647 10.497647 10.497647 10.497647 10.497647 10.497647 10.420393 10.420393 10.420393 10.420393 10.420393 10.420393 10.420393 10.343138 10.343138 10.343138 10.343138 10.343138 10.343138 10.343138 10.343138 10.343138 10.343138 10.343138 10.2658825 10.2658825 10.2658825 10.2658825 10.2658825 10.2658825 10.2658825 10.2658825 10.343138 10.343138 10.343138 10.343138 10.420393 10.420393 10.420393 10.420393 10.497647 10.497647 10.497647 10.497647 10.497647 10.497647 10.497647 10.497647 10.497647 10.497647 10.497647 10.497647 10.497647 10.497647 10.497647 10.497647 10.497647 10.497647 10.497647 10.497647
14.205883 14.205883 14.283137 14.283137 14.283137 14.283137 14.283137 14.283137 14.283137 14.283137 14.283137 14.283137 14.283137 14.283137 14.283137 14.283137 14.283137 14.283137 14.283137 14.283137 14.283137 14.360393 14.360393 14.360393 14.360393 14.360393 14.360393 14.360393 14.360393 14.360393 14.360393 14.360393 14.360393 14.360393 14.360393 14.360393 14.360393 14.283137 14.283137 14.283137 14.283137 6.094118 6.094118 6.094118 6.094118 6.094118 6.094118 14.051373 14.051373 13.974118 13.896863 13.819609 13.819609 13.742353 13.665098 13.587844 13.587844 13.510589 13.433333 13.433333 13.356079 13.278824 13.278824 13.278824 13.278824 13.278824 13.278824 13.201569 13.201569 13.201569 13.201569 13.124314 13.124314 13.124314 13.047059 13.047059 12.969805 12.969805 12.8925495 12.8925495 12.8925495 12.815294 12.815294 12.73804 12.73804 12.660785 12.660785 12.660785 12.583529 12.583529 12.583529 12.583529 12.506275 12.506275 12.506275 12.506275 12.506275 12.506275 12.506275 12.506275 12.506275 12.42902 12.42902 12.42902 12.42902 12.42902 12.42902 12.42902 12.42902 12.42902 12.351766 12.351766 12.351766 12.351766 12.351766 12.351766 12.351766 12.27451 12.27451 12.27451 12.27451 12.27451 12.27451 12.27451 12.27451 12.27451 12.27451 12.27451 12.27451 12.27451 12.27451 12.27451 12.27451 12.27451 12.351766 12.351766 12.351766 12.351766 12.351766 12.351766 12.351766 12.351766 12.42902 12.506275 12.583529 12.660785 12.583529 12.583529 12.506275 12.42902 12.42902 12.351766 12.351766 12.27451 12.27451 12.197255 12.197255 12.120001 12.120001 12.042746 12.042746 12.042746 11.96549 11.96549 11.888236 11.888236 11.888236 11.810981 11.810981 11.733726 11.733726 11.733726 11.733726 11.733726 11.656471 11.656471 11.656471 11.656471 11.656471 11.656471 11.579216 11.579216 11.579216 11.579216 11.579216 11.501962 11.501962 11.501962 11.501962 11.501962 11.424706 11.424706 11.424706 11.424706 11.424706 11.424706 11.424706 11.424706 11.347451 11.347451 11.347451 11.347451 11.347451 11.347451 11.424706 11.424706 11.424706 11.424706 11.501962 11.501962 11.579216 11.656471 11.656471 11.733726 11.733726 11.810981 11.810981 11.733726 11.733726 11.656471 11.579216 11.579216 11.501962 11.501962 11.424706 11.424706 11.347451 11.270197 11.270197 11.192942 11.192942 11.115686 11.115686 11.038432 11.038432 10.961177 10.961177 10.883923 10.883923 10.806667 10.806667 10.729412 10.729412 10.652158 10.652158 10.652158 10.652158 10.574903 10.574903 10.574903 10.574903 10.574903 10.497647 10.497647 10.497647 10.497647 10.497647 10.497647 10.420393 10.420393 10.420393 10.420393 10.420393 10.420393 10.420393 10.420393 10.420393 10.420393 10.420393 10.343138 10.343138 10.343138 10.343138 10.343138 10.343138 10.343138 10.343138 10.343138 10.343138 10.343138 10.2658825 10.2658825 10.2658825 10.343138 10.343138 10.343138 10.343138 10.420393 10.420393 10.420393 10.497647 10.497647 10.497647 10.497647 10.497647 10.497647 10.497647 10.497647 10.497647 10.497647 10.497647 10.497647 10.497647 10.497647 10.497647 10.497647 10.497647 10.497647 10.497647 10.497647 10.497647 10.497647 10.574903
14.128628 14.128628 14.128628 14.128628 14.128628 14.128628 14.205883 14.205883 14.205883 14.205883 14.205883 14.205883 14.205883 14.205883 14.205883 14.205883 14.205883 14.205883 14.205883 14.205883 14.205883 14.205883 14.205883 14.205883 14.205883 14.205883 14.283137 14.283137 14.283137 14.283137 14.283137 14.283137 14.283137 14.283137 14.283137 14.283137 14.283137 14.283137 14.283137 14.283137 14.283137 14.283137 14.283137 14.205883 14.205883 14.205883 14.128628 14.051373 13.974118 13.896863 13.896863 13.819609 13.742353 13.665098 13.665098 13.587844 13.510589 13.510589 13.433333 13.356079 13.356079 13.278824 13.278824 13.278824 13.278824 13.278824 13.201569 13.201569 13.201569 13.124314 13.124314 13.047059 13.047059 12.969805 12.969805 12.969805 12.8925495 12.8925495 12.815294 12.815294 12.815294 12.73804 12.73804 12.660785 12.660785 12.583529 12.583529 12.506275 12.506275 12.506275 12.506275 12.506275 12.506275 12.506275 12.506275 12.506275 12.42902 12.42902 12.42902 12.42902 12.42902 12.42902 12.42902 12.42902 12.42902 12.351766 12.351766 12.351766 12.351766 12.351766 12.351766 12.351766 12.351766 12.27451 12.27451 12.27451 12.197255 12.197255 12.197255 12.197255 12.197255 12.27451 12.27451 12.27451 12.27451 12.27451 12.27451 12.27451 12.27451 12.27451 12.27451 12.27451 12.27451 12.27451 12.27451 12.351766 12.351766 12.351766 12.351766 12.351766 12.351766 12.351766 12.351766 12.42902 12.506275 12.660785 12.583529 12.506275 12.506275 12.42902 12.42902 12.351766 12.351766 12.27451 12.27451 12.197255 12.120001 12.120001 12.120001 12.042746 12.042746 12.042746 11.96549 11.96549 11.888236 11.888236 11.810981 11.810981 11.810981 11.733726 11.733726 11.733726 11.733726 11.733726 11.733726 11.656471 11.656471 11.656471 11.656471 11.656471 11.579216 11.579216 11.579216 11.579216 11.579216 11.501962 11.501962 11.501962 11.501962 11.501962 11.424706 11.424706 11.424706 11.424706 11.424706 11.424706 11.424706 11.424706 11.424706 11.347451 11.347451 11.347451 11.347451 11.347451 11.424706 11.424706 11.424706 11.501962 11.501962 11.501962 11.579216 11.579216 11.656471 11.656471 11.733726 11.810981 11.810981 11.733726 11.656471 11.656471 11.579216 11.579216 11.501962 11.424706 11.424706 11.347451 11.347451 11.270197 11.192942 11.192942 11.115686 11.115686 11.038432 11.038432 10.961177 10.961177 10.883923 10.883923 10.806667 10.806667 10.729412 10.729412 10.652158 10.652158 10.652158 10.652158 10.574903 10.574903 10.574903 10.574903 10.574903 10.574903 10.497647 10.497647 10.497647 10.497647 10.497647 10.497647 10.497647 10.497647 10.497647 10.420393 10.420393 10.420393 10.420393 10.420393 10.420393 10.420393 10.420393 10.420393 10.420393 10.420393 10.343138 10.343138 10.343138 10.343138 10.343138 10.343138 10.343138 10.343138 10.343138 10.343138 10.343138 10.343138 10.420393 10.420393 10.420393 10.420393 10.497647 10.497647 10.497647 10.497647 10.574903 10.574903 10.574903 10.574903 10.574903 10.574903 10.574903 10.574903 10.574903 10.574903 10.574903 10.497647 10.497647 10.497647 10.497647 10.497647 10.497647 10.497647 10.574903 10.574903 10.574903
14.051373 14.051373 14.051373 14.051373 14.051373 14.051373 14.051373 14.051373 14.051373 14.051373 14.051373 14.051373 14.051373 14.051373 14.128628 14.128628 14.128628 14.128628 14.128628 14.128628 14.128628 14.128628 14.128628 14.128628 14.128628 14.128628 14.128628 14.128628 14.128628 14.128628 14.128628 14.205883 14.205883 14.205883 14.205883 14.205883 14.205883 14.205883 14.205883 14.205883 14.205883 14.205883 14.205883 14.205883 14.205883 14.205883 14.128628 14.051373 13.974118 13.896863 13.819609 13.819609 13.742353 13.665098 13.587844 13.587844 13.510589 13.433333 13.356079 13.356079 13.278824 13.278824 13.278824 13.278824 13.278824 13.201569 13.201569 13.124314 13.124314 13.047059 13.047059 12.969805 12.969805 12.8925495 12.8925495 12.8925495 12.815294 12.815294 12.73804 12.73804 12.660785 12.660785 12.660785 12.583529 12.583529 12.506275 12.506275 12.506275 12.506275 12.506275 12.506275 12.42902 12.42902 12.42902 12.42902 12.42902 12.42902 12.42902 12.42902 12.42902 12.351766 12.351766 12.351766 12.351766 12.351766 12.351766 12.351766 12.351766 12.351766 12.27451 10.034119 10.034119 9.956863 9.956863 9.956863 10.111373 12.197255 12.197255 12.197255 12.197255 12.197255 12.197255 12.27451 12.27451 12.27451 12.27451 12.27451 12.27451 12.27451 12.27451 12.27451 12.27451 12.27451 12.27451 12.27451 12.27451 12.351766 12.351766 12.351766 12.351766 12.351766 12.351766 12.351766 12.42902 12.506275 12.660785 12.583529 12.506275 12.506275 12.42902 12.42902 12.351766 12.351766 12.27451 12.27451 12.197255 12.120001 12.120001 12.120001 12.042746 12.042746 11.96549 11.96549 11.888236 11.888236 11.888236 11.810981 11.810981 11.810981 11.733726 11.733726 11.733726 11.733726 11.733726 11.733726 11.656471 11.656471 11.656471 11.656471 11.656471 11.579216 11.579216 11.579216 11.579216 11.579216 11.579216 11.501962 11.501962 11.501962 11.501962 11.501962 11.424706 11.424706 11.424706 11.424706 11.424706 11.424706 11.424706 11.424706 11.347451 11.347451 11.347451 11.347451 11.347451 11.424706 11.424706 11.424706 11.501962 11.501962 11.501962 11.579216 11.579216 11.579216 11.656471 11.656471 11.733726 11.733726 11.733726 11.656471 11.579216 11.579216 11.501962 11.501962 11.424706 11.424706 11.347451 11.270197 11.270197 11.192942 11.192942 11.115686 11.115686 11.038432 11.038432 10.961177 10.961177 10.883923 10.883923 10.806667 10.806667 10.729412 10.729412 10.652158 10.652158 10.652158 10.574903 10.574903 10.574903 10.574903 10.574903 10.574903 10.574903 10.497647 10.497647 10.497647 10.497647 10.497647 10.497647 10.497647 10.497647 10.497647 10.497647 10.497647 10.497647 10.420393 10.420393 10.420393 10.420393 10.420393 10.420393 10.420393 10.420393 10.420393 10.420393 10.420393 10.343138 10.343138 10.343138 10.343138 10.343138 10.343138 10.343138 10.420393 10.420393 10.420393 10.420393 10.497647 10.497647 10.497647 10.497647 10.574903 10.574903 10.574903 10.574903 10.574903 10.574903 10.574903 10.574903 10.574903 10.574903 10.574903 10.574903 10.574903 10.574903 10.497647 10.497647 10.497647 10.497647 10.574903 10.574903 10.574903 10.574903 10.574903
